# .PCD v0.7 - Point Cloud Data file format
VERSION 0.7
FIELDS x y z intensity
SIZE 4 4 4 4
TYPE F F F F
COUNT 1 1 1 1
WIDTH 1199
HEIGHT 1
VIEWPOINT 0 0 0 1 0 0 0
POINTS 1199
DATA ascii
13.341779 -85.542671 3.106431 24.056202
13.529383 -85.573647 3.2463422 24.066999
13.742902 -30.170036 -0.81462002 21.055
13.763655 -28.612677 -0.83935648 21.055166
13.767585 -27.717247 -0.82197541 21.071751
13.789783 -27.482944 -0.81948811 21.058664
13.779706 -27.093121 -0.84048098 21.070999
13.842879 -26.631037 -0.85161597 21.040167
13.726753 -26.198383 -0.86482257 21.050667
13.780518 -25.315273 -0.86425114 21.053501
13.818553 -25.145031 -0.91454071 21
13.811046 -24.773413 -0.88540137 21.085501
13.833222 -23.826612 -0.92712551 21.055
13.812867 -22.941826 -0.89158958 21.068001
13.998114 -22.435686 -0.94972956 21
13.93332 -22.183704 -0.95414549 21.038124
13.705083 -21.797668 -0.96245003 20.777876
13.922182 -21.102634 -0.99818325 20
13.911049 -20.567841 -1.0088989 20
13.670857 -20.218855 -0.99221992 20
13.815627 -19.748449 -0.98826432 20
13.830297 -19.332075 -1.0008882 20.356001
13.672233 -18.811758 -1.0029066 22.043501
13.823657 -18.436655 -1.001942 21.066999
13.966505 -18.112488 -1.0209584 20
13.946692 -17.758209 -1.0315808 20
13.773674 -17.513947 -1.0292305 20
13.727994 -16.883917 -1.018783 19
13.863766 -16.60054 -1.0303309 19.613001
13.773232 -16.238737 -1.0324869 19.166666
13.715037 -15.847454 -1.036485 19.333334
13.828304 -15.531927 -1.0337781 20.0135
13.854583 -14.915858 -1.0427656 19.5
13.841746 -14.798373 -1.0298299 20
13.89992 -14.218544 -1.0527906 18.666666
13.811669 -13.793838 -1.0597024 18.375
13.766204 -13.394798 -1.0602825 19
13.751248 -13.099937 -1.0612282 18.625
13.833972 -12.599073 -1.0663341 19.4116
13.794416 -12.205571 -1.039444 19.138659
13.748446 -11.827963 -1.0558326 18.881062
13.808784 -11.335054 -1.0283997 18.507576
13.876998 -10.918612 -0.95400774 17.966002
13.809281 -10.677417 -0.96777147 18.025816
13.816179 -10.203403 -1.0947059 16.587166
13.84318 -9.7764158 -1.0989398 15.4
13.811852 -9.331481 -1.1015685 15.090909
13.861781 -8.9658422 -1.1055629 14.444445
13.832455 -8.6253805 -1.1011299 14.113636
13.726953 -8.2064896 -1.1064367 14.784722
13.823489 -7.8524437 -1.1075374 13.989583
13.751909 -7.4245205 -1.1060007 13.795
13.813361 -6.9894323 -1.105435 14.541666
13.810234 -6.5988488 -1.1060023 14.332223
13.839081 -6.2512908 -1.1095996 13.458333
13.802685 -5.794796 -1.1128294 12.392858
13.83766 -5.3886008 -1.1167318 8.83708
13.757234 -4.9807549 -1.116888 9.708333
13.744493 -4.6390738 -1.113167 10.946296
13.808976 -4.2624965 -1.1172938 9.791666
13.811481 -3.8076975 -1.1179911 11.120372
13.926394 -3.4268317 -1.1226364 12.025
13.777682 -3.0509005 -1.1151638 13.592593
13.790777 -2.5804543 -1.1228648 13.311404
13.821115 -2.2170579 -1.1230114 13.875
13.814095 -1.7565176 -1.1211221 15.593707
13.789672 -1.3973216 -1.1163245 14.677322
13.757622 -1.0191118 -1.1158192 14.366667
13.761387 -0.60750294 -1.1130881 15.59375
13.785925 -0.1918865 -1.1258621 15.3
13.779641 0.16594346 -1.1269819 15.538462
13.801226 0.6136781 -0.9785673 18.073505
13.616801 1.5203923 -0.9733699 19
13.716095 1.7995777 -0.9700889 17.651514
13.847229 2.1567254 -0.99963546 17.604166
13.798488 2.5732481 -1.0537509 16.583334
13.844478 3.0237849 -1.11209 17.5
13.812915 3.37059 -1.1004117 17.666666
13.793739 3.7630787 -1.1093805 17.5
13.81663 4.279479 -1.0147566 18.708334
13.783508 4.5701427 -0.8761521 19.629011
13.952169 -40.909401 -0.40365025 22.0455
13.601399 -40.304672 -0.40423167 22.045
13.807384 -39.893661 -0.47404632 22.056999
13.605331 -39.51852 -0.46642089 22.057501
13.814943 -37.688152 -0.548738 22.046499
13.725393 -33.546108 -0.64053559 22.0485
13.862026 -18.229801 -0.6352548 21
13.761066 -12.19989 -0.62131244 21.381943
13.769489 -11.865747 -0.60345256 20.25
13.79562 -11.28022 -0.52746683 20.75
13.905954 -10.894981 -0.61240321 19.873026
13.853329 -10.732078 -0.56419939 20.93922
13.77777 -10.373927 -0.56875116 22.1835
13.835434 0.67551553 -0.74678743 20.065525
13.717719 0.97480828 -0.6881308 20.579563
13.712886 1.4706681 -0.72879177 19.116325
13.80697 1.7772902 -0.75105661 18.832108
13.934363 2.1381822 -0.76157141 18.4
13.805437 4.5694137 -0.59710002 20.841593
13.873465 -41.778717 -0.36307532 22.046499
13.724319 -41.275238 -0.33697176 22.065332
13.827949 -40.923615 -0.31384793 22.068501
13.63514 -39.860207 -0.37127361 22.068501
13.859398 -18.19607 -0.24055119 22.333334
13.765484 -12.170611 -0.21390192 22.623604
13.783649 -11.82835 -0.20792699 21.892376
13.73933 -11.267936 -0.21526867 21.916666
13.910176 -10.990519 -0.20818479 22.731182
13.846966 -10.661253 -0.19390939 23.101511
13.770969 -10.323804 -0.25271797 23
13.791235 4.6015458 -0.19946693 22.820791
13.827332 -44.700882 0.095493719 23.0495
13.793505 -18.233858 0.17619374 23.75
13.701146 -12.406172 0.15605989 23.0755
13.787024 -12.116552 0.16076916 23.536634
13.751414 -11.86534 0.24119011 23.813278
13.823995 -11.29286 0.18360151 24.299999
13.918849 -10.973455 0.13318807 24.598356
13.843285 -10.634123 0.19742876 25.848509
13.7346 -10.316283 0.12305509 24.016832
13.827429 4.6144838 0.058007803 24.533333
13.968862 -45.19899 0.47872898 23.047501
13.813572 -44.69989 0.46101639 23.050001
13.824125 -18.322903 0.55255079 25
13.784665 -12.175326 0.50153446 24.834438
13.75264 -11.859011 0.58993298 25.333334
13.845223 -11.24148 0.58272368 26.18329
13.886178 -10.943954 0.51969337 26.708464
13.896203 -10.571126 0.49779582 28.180761
13.769938 -83.720795 2.380518 24.061501
13.717871 -83.671013 2.5890751 24.052999
13.882567 -85.39817 2.9528315 24.057501
14.111216 -30.430969 -0.81863606 21.0555
14.391535 -29.250376 -0.8510921 21.0555
14.090524 -28.952473 -0.8563264 21.05275
14.194793 -28.69072 -0.81760597 21.061501
14.234819 -28.146437 -0.82062757 21.05125
14.266467 -27.758223 -0.83375257 21.070333
14.243112 -27.305511 -0.8559292 21.049252
14.179745 -26.9547 -0.85686767 21.057125
14.144749 -26.572929 -0.88241655 21.057499
14.146853 -25.77969 -0.88119501 21.037251
14.234817 -25.503258 -0.88431209 21.055626
14.260139 -24.808588 -0.8982386 21.086
14.327002 -24.267962 -0.94003904 21.04475
14.176629 -23.65918 -0.91885418 21.077999
14.327482 -23.228077 -0.90155655 21.068501
14.352575 -22.914474 -0.95140302 21
14.171393 -22.595716 -0.95230156 21.012833
14.115486 -22.359348 -0.95726633 21.038
14.112517 -21.868509 -0.9818908 20
14.258232 -21.355778 -1.0043688 20
14.192913 -20.888599 -0.9986968 20.683668
14.165537 -20.581413 -0.99841434 20.4097
14.251338 -20.153748 -0.98860842 20
14.137867 -19.939842 -1.0049539 20
14.339037 -19.477222 -1.0096655 21.068501
14.313992 -19.067776 -1.0151229 21.021999
14.18439 -18.598776 -1.0124234 20.355833
14.176967 -18.217628 -1.0017715 20
14.13355 -17.996616 -1.0337073 20
14.231232 -17.301678 -1.0342724 20.521751
14.204851 -17.01598 -1.032882 19.5
14.268295 -16.572271 -1.0349988 19.6
14.215304 -16.212482 -1.0445396 19
14.214384 -15.684692 -1.0386616 20.01025
14.210464 -15.379119 -1.0420822 19.333334
14.252511 -14.952328 -1.0464072 20
14.191012 -14.574925 -1.0543885 19
14.180628 -14.143705 -1.0682281 18
14.182216 -13.800756 -1.0727165 18
14.295722 -13.405334 -1.0753106 18.5
14.263878 -12.979918 -1.0739665 18.5
14.247883 -12.532825 -1.0710093 18.444445
14.188048 -12.228509 -1.0337176 18.666666
14.259455 -11.781628 -1.0930988 17.674833
14.152602 -11.356793 -1.0601041 18.527458
14.171795 -10.942639 -1.0064508 18.843626
14.192337 -10.57317 -1.0439714 16.833334
14.176119 -10.189914 -1.0966035 18.157423
14.259522 -9.8390532 -1.1054772 15.636364
14.192061 -9.3785553 -1.1045163 14.5
14.231411 -8.9971542 -1.1079341 14.416667
14.259827 -8.544466 -1.0727671 13.388889
14.173492 -8.1566229 -1.0981742 13.065789
14.226355 -7.7555194 -1.1118675 13.377193
14.167983 -7.3976293 -1.11479 15.225
14.200306 -7.056953 -1.1103189 13.113636
14.178088 -6.6433482 -1.1107367 13.735544
14.184102 -6.2039089 -1.1164949 13.044444
14.19639 -5.8032184 -1.1197785 13.518519
14.269963 -5.4099836 -1.1226232 13.7125
14.173033 -4.9966617 -1.1233925 10.691667
14.230474 -4.6136527 -1.1269988 11.905951
14.241623 -4.2219577 -1.1271728 11.768518
14.153187 -3.8055241 -1.1269808 9.1507931
14.176423 -3.3818183 -1.1221988 13.224242
14.224763 -2.9844346 -1.1283567 14.633751
14.207872 -2.599369 -1.1285317 14.676471
14.218294 -2.2540579 -1.1327143 14.036666
14.159251 -1.811753 -1.1297172 14.061404
14.20255 -1.4435638 -1.1264896 16.075001
14.233212 -0.99994588 -1.1275964 16.25
14.211626 -0.5700469 -1.1267476 15.4375
14.212101 -0.16080442 -1.13708 15.6
14.253315 0.32958257 -1.0473465 17.492664
14.145587 0.46673831 -0.96565354 18.673931
14.037434 2.3331962 -0.89803487 18.722221
14.09906 2.5520751 -0.96685976 18.429167
14.259107 3.0544643 -1.1122075 17.428572
14.19699 3.3733571 -1.1139556 17.454546
14.187806 3.8104026 -1.1037027 17.4
14.194013 4.2162576 -0.95549637 19.123457
14.092549 4.4359331 -0.89317328 18.833334
14.291247 -41.589436 -0.40315759 22.046
14.376341 -40.837074 -0.4764545 22.057501
14.23721 -38.019394 -0.5524925 22.047001
14.384635 -34.491379 -0.64829493 22.0495
14.060273 -33.986835 -0.64398944 22.049
14.098951 -32.230927 -0.73954606 22.063499
14.226164 -19.024002 -0.46335942 23.044001
14.195466 -12.433522 -0.51026034 21
14.218945 -12.263638 -0.61650902 20.95278
14.198043 -11.344491 -0.64002395 21.118299
14.196059 -10.846187 -0.62749046 20.808826
14.132204 -10.749468 -0.51316804 21.00605
14.276951 -8.3167419 -0.54405314 18.011904
14.287403 -5.3820152 -0.53712541 11.25
14.244289 0.53357291 -0.73758674 19.742674
14.204494 1.0866632 -0.69885194 19.4
14.112144 1.4368556 -0.71609241 19.6306
14.198646 1.7852496 -0.70765316 21.118813
14.209324 2.1407061 -0.72687608 19.878357
14.127886 2.5499384 -0.78470439 18.666666
14.245727 4.3269162 -0.60340267 21.024572
14.092705 4.4359908 -0.59189057 20.844446
14.000329 -43.730598 -0.36858174 22.054001
14.075018 -43.188538 -0.27219209 22.0865
14.338593 -42.562214 -0.34214178 22.054501
14.19481 -42.338985 -0.35194242 22.050501
14.003107 -41.795086 -0.36979148 22.056999
14.197222 -12.563679 -0.22416312 22.528999
14.209395 -12.265748 -0.22505866 22.4
14.398054 -11.666073 -0.36189631 21
14.307394 -11.383785 -0.25334394 22.26125
14.063268 -10.89503 -0.19068508 22.685316
14.145795 -10.713593 -0.18831618 22.589045
14.265862 -8.2845297 -0.13381802 24.185715
14.27093 4.3303285 -0.2103354 22.747808
14.092957 4.4507542 -0.18981864 23.067389
14.307842 -18.828251 0.089220233 24
14.155195 -12.453915 0.27814588 24.033167
14.239509 -12.234298 0.1520218 23.749998
14.391658 -11.707061 0.24105054 24
14.28235 -11.374973 0.074325539 23.534561
14.093389 -10.882574 0.1584077 24.544903
14.135781 -10.691734 0.18248892 24.798996
14.287446 -8.2641459 0.16494878 28.773771
14.278359 4.3693538 0.039848905 24.592573
14.073588 4.4567752 0.083227433 24.843807
14.207121 -12.490004 0.55651045 25
14.095841 -10.931964 0.48859969 24.673229
14.198142 -10.603242 0.44939947 24.858969
14.153431 -83.533531 0.92467159 25.030001
14.109954 -83.630295 2.3471029 24.054001
14.329029 -83.498367 2.5749824 24.052999
14.487989 -30.74259 -0.82409817 21.056
14.642509 -29.351213 -0.8695069 21.05125
14.655243 -28.940643 -0.8251121 21.062
14.697183 -28.555401 -0.82553548 21.052
14.56606 -28.011543 -0.84598136 21.057501
14.694922 -27.735016 -0.85286516 21.094
14.569541 -27.427834 -0.85538352 21.045
14.635865 -27.095716 -0.86852384 21.07325
14.675002 -26.432549 -0.88098145 21.0385
14.429676 -26.21151 -0.88204086 21.038
14.670104 -25.805485 -0.89009947 21.056252
14.68548 -24.679821 -0.92686683 21.066
14.632976 -23.446388 -0.94040239 21.039249
14.507084 -23.061367 -0.95425999 21.036249
14.467486 -22.084459 -0.98692429 20
14.472383 -21.982719 -0.990058 20
14.636296 -21.423168 -1.0134976 20
14.675464 -21.041973 -1.0176529 21.019749
14.670488 -20.649273 -1.0170935 20.624201
14.479173 -20.205458 -1.008551 20
14.60451 -19.38327 -1.0227875 21
14.47594 -19.104912 -1.0201261 22
14.610791 -18.637615 -1.0135256 21.413601
14.606217 -18.21908 -1.0315197 20
14.635613 -17.813251 -1.0385538 19.666666
14.576932 -17.344797 -1.045736 19.666666
14.627033 -16.92337 -1.008294 19.6
14.637439 -16.590633 -0.97127664 20.688499
14.613478 -16.295813 -1.0579484 19
14.546293 -15.7083 -1.0445937 19.75
14.690896 -15.596679 -1.0609002 19
14.677033 -14.597407 -1.0661588 18.833334
14.61666 -14.218994 -1.0701491 18.666666
14.55147 -13.872988 -1.0752468 19
14.563829 -13.286727 -1.0769978 18.666666
14.647854 -13.014875 -1.0799824 18.09091
14.626719 -12.676238 -1.0897566 18.116167
14.516664 -12.197804 -1.0924867 18.333334
14.654909 -11.76337 -1.0629543 17.928572
14.548143 -11.349499 -1.0284256 17.587963
14.623618 -10.960252 -1.1032134 16.72143
14.568423 -10.62505 -1.1045282 15.909091
14.619444 -10.207739 -1.1073955 15.8047
14.599872 -9.8504076 -1.1027536 16.205883
14.569766 -9.3790932 -1.1048957 16.151514
14.621481 -9.0325727 -1.1118054 13.559525
14.600771 -8.6741381 -1.1149204 12.514284
14.59901 -8.241087 -1.1180311 12.083334
14.604628 -7.8237395 -1.1179259 12.431818
14.598848 -7.3800101 -1.1147951 14.460715
14.526787 -6.9468074 -1.1224627 15.380303
14.624569 -6.5871224 -1.1213036 14.816667
14.667668 -6.265707 -1.1253278 10.313932
14.535494 -5.8155103 -1.1261541 11.116667
14.6133 -5.4233952 -1.1291926 12.6875
14.59266 -4.9815168 -1.1255414 14.214286
14.590155 -4.5560203 -1.1315563 10.388094
14.591002 -4.1928859 -1.1358681 12.199999
14.58464 -3.7442617 -1.1350735 13.150759
14.610703 -3.3738241 -1.1415401 13.583788
14.598239 -2.9742453 -1.1372918 13.232142
14.606745 -2.5958428 -1.1353605 14.894698
14.580729 -2.1561844 -1.1350698 15.011905
14.595202 -1.7665542 -1.1342248 14.121212
14.593241 -1.366161 -1.1360508 15.488889
14.615708 -0.95770234 -1.1369166 16.357143
14.588297 -0.6755231 -1.1371934 17.363636
14.617428 -0.22973263 -1.1405452 16.777779
14.617929 0.2161324 -1.0010837 18.280727
14.437937 2.9678168 -1.1225563 16.75
14.615838 3.8785529 -1.0378069 18.640001
14.595088 4.1593008 -0.90652686 19.482143
14.603149 -42.419491 -0.40263408 22.046499
14.600512 -38.528271 -0.5571987 22.047501
14.460414 -21.561674 -0.41888142 23.0485
14.570231 -18.879538 -0.45817786 23
14.647667 -14.836189 -0.5199337 23.042
14.466604 -12.238583 -0.67232203 20.5
14.534463 -11.622144 -0.59382403 19.85
14.580658 -11.357731 -0.66060483 19.477779
14.403973 -10.709491 -0.54925942 21
14.787449 -9.3429499 -0.5824635 22
14.418003 -8.4737368 -0.53573143 18.25
14.533801 -5.4576821 -0.76936442 2.5
14.620052 0.31050289 -0.74867028 20.317625
14.456832 0.49585098 -0.72932422 19.200001
14.56677 1.0433906 -0.70714569 20
14.644443 1.402795 -0.72548693 20
14.646852 1.8463618 -0.72644955 20.383501
14.628659 2.0896816 -0.73583776 20.3825
14.619642 4.1596346 -0.59135151 21.154129
14.733831 -43.493683 -0.36551979 22.049999
14.647243 -42.968018 -0.3584162 22.053167
14.639793 -16.769514 -0.33367947 23.014
14.478138 -12.186872 -0.21789756 22.5
14.480659 -11.677357 -0.21129681 21.76775
14.610925 -11.336736 -0.26632199 21.655413
14.703591 -11.180834 -0.2165996 22
14.770471 -9.341835 -0.035244595 23.5
14.551951 -8.5948391 -0.10257351 24.428715
14.443905 -8.3217258 -0.025773151 25.821428
14.433578 -5.0326738 -0.28329614 22.4245
14.597185 4.2020531 -0.19901405 22.915678
14.599196 -21.705059 0.18806952 24.0485
14.547279 -18.663891 0.094078936 24
14.679386 -16.739738 0.1768277 24
14.42492 -12.08754 0.23068962 24.5
14.441401 -11.632563 0.13838485 23.5
14.604077 -11.362308 0.15358634 23.958334
14.405095 -10.810045 0.10833783 23.066
14.421062 -10.589782 0.12124698 23.5
14.555347 -8.5824289 0.14484112 27.991072
14.452892 -8.2918186 0.16463819 28.797901
14.602527 4.2124739 0.038808417 24.857143
14.501592 -11.640382 0.44121963 25
14.625873 -11.323071 0.478946 25.799999
14.701935 -11.168262 0.46647727 26
14.463393 -75.005478 1.7735345 24.050501
14.588099 -82.597824 2.275532 25.039499
14.791722 -83.448853 2.4044859 24.0625
14.737305 -85.152985 3.0647471 24.056499
15.087276 -29.74007 -0.87403053 21.052
15.064866 -28.977396 -0.83025283 21.057499
14.895454 -28.152763 -0.83888817 21.059502
14.986094 -27.833958 -0.86313862 21.065084
15.094135 -27.3104 -0.89421481 21.058001
15.004756 -27.147205 -0.85747766 21.0895
14.891728 -26.680408 -0.88107121 21.039
14.940307 -26.161667 -0.92130393 21.04175
15.155421 -24.93458 -0.94837779 21.046499
15.021943 -24.745359 -0.93352532 21.0665
15.16089 -23.758812 -0.95320052 21.0205
14.910134 -23.439905 -0.94311804 21.051052
14.941132 -22.178278 -0.9987278 20
15.0501 -21.730192 -1.0137764 20
14.963436 -21.37455 -1.0068785 20
15.081896 -20.954159 -1.0188618 20
15.043818 -20.531033 -1.0306236 20.268126
14.993741 -20.312336 -1.0282739 20
14.899683 -19.860067 -1.0298156 20.356333
15.157535 -19.337866 -1.0560586 20
15.057407 -18.989695 -1.0420616 20.340834
15.008308 -18.618778 -1.0459532 20.267124
14.923989 -18.175081 -1.0372156 20
15.00814 -17.867348 -1.0494031 19.5
14.934108 -17.482595 -1.0570993 20.521999
15.085697 -17.012989 -1.0646042 19.5
14.925946 -16.503641 -1.0171186 20.011
15.027658 -16.212317 -1.068487 19.5
15.054126 -15.717401 -1.0569903 20.010376
14.960854 -15.342777 -1.0655965 19.5
14.907123 -14.888368 -1.0628152 19
15.016655 -14.64553 -1.0518571 19.010624
15.012181 -14.179245 -1.0809411 18.5
15.029081 -13.756802 -1.0869951 18.333334
14.946754 -13.386319 -1.081097 18
15.015378 -12.966269 -1.0864444 17.875
14.983848 -12.56337 -1.0998263 17
15.13279 -12.157912 -1.1018066 16.75
14.970037 -11.850133 -1.1043662 16.6
14.989614 -11.328318 -1.1000229 16.65
14.963143 -10.978663 -1.0919657 17.926962
15.027596 -10.530951 -1.0776161 16.642857
15.021323 -10.201294 -1.1095898 16.875
14.998509 -9.7798014 -1.1104348 15.940469
14.977634 -9.4336338 -1.0948571 15.083334
14.996404 -9.0056887 -1.1179326 14.328126
14.987896 -8.5708122 -1.1209254 13.410784
15.04428 -8.1854734 -1.1225312 12.458332
14.981653 -7.8516488 -1.1219798 13.119446
14.985455 -7.449729 -1.1231089 12.094048
15.001446 -7.0570912 -1.1256102 13.614583
15.003821 -6.6373596 -1.131689 12.583549
14.985444 -6.193615 -1.1271873 14.318027
14.961661 -5.8053074 -1.1313103 10.444445
14.94338 -5.3554726 -1.13986 13
14.971465 -5.0003476 -1.1393281 13.549243
15.009768 -4.6079578 -1.1420248 11.155556
15.028629 -4.2336946 -1.141773 12.309524
15.027436 -3.8069787 -1.1462814 13.911403
15.025552 -3.4009979 -1.1452253 15.894515
15.040768 -3.0206845 -1.1440418 13.372892
15.004368 -2.6337121 -1.1461649 12.980769
15.002754 -2.2166142 -1.1426798 15.625001
14.997655 -1.7920251 -1.1467637 15.886364
15.027048 -1.4167107 -1.1473446 16.307692
15.025138 -0.99247026 -1.1488731 16.294117
14.981703 -0.60253656 -1.144526 16.9375
15.006645 -0.16300328 -1.1382691 17.428572
14.963375 0.066266246 -0.9859159 18.960714
15.141066 3.5286422 -1.1097496 17.5
14.997487 3.8275735 -0.97003251 19.142859
14.876108 4.0388441 -0.9165988 19.333334
14.967639 -43.128204 -0.40260613 22.047001
15.187826 -36.527256 -0.62111694 22.048
14.875367 -35.954494 -0.62225324 22.047501
14.99265 -18.696939 -0.45041117 23.045
15.116999 -10.530731 -0.60977763 19.5625
15.183208 -10.194671 -0.57709759 22.062
14.902661 -9.1811161 -0.57855362 22
15.054963 -4.529211 -0.73288578 21
15.18857 -4.0112772 -0.73230422 21
15.172446 -3.9146798 -0.73044091 21
15.116076 -3.2066481 -0.72029078 21.084
15.034905 -2.9536521 -0.71428478 21
14.993084 0.14406481 -0.75360703 20.223125
15.088703 0.76579571 -0.6067431 20.6
15.084035 0.9319607 -0.55924112 21.047113
15.106603 1.3278092 -0.63180709 20.576923
14.994002 1.8968267 -0.7582019 20
15.031728 3.940455 -0.6002897 21.125322
14.891354 4.0511155 -0.58104545 21.305065
15.168599 -44.373005 -0.36290857 22.050501
15.104182 -43.881012 -0.34192482 22.054331
14.823282 -42.857845 -0.31856129 22.069
14.994102 -16.566156 -0.32752725 23
14.920375 -11.276158 -0.10212387 22.712168
15.117268 -10.998851 -4.7929243e-06 23
15.075275 -10.501875 -0.12601793 23.0655
15.090194 -10.288604 -0.26756057 21.966667
14.909082 -9.165659 -0.032929439 23.5
14.956363 -4.4991031 -0.18078531 22.5
14.981127 -4.1650043 -0.23992804 22.360666
15.061254 -3.9088445 -0.18029666 22.5
15.038926 -2.8918278 -0.11807137 22.666666
15.044767 -2.7844248 -0.35509238 22
15.160231 0.78347057 -0.29222694 21.833334
15.093262 0.93382019 -0.19786035 23.268572
15.186193 1.2815565 -0.21078005 22.375
15.104617 3.9317656 -0.2137834 22.746115
14.918915 4.0673227 -0.20460485 23.080515
14.960774 -21.572212 0.19126882 24.049
14.929867 -18.605696 0.101657 24.045
15.004581 -16.597366 0.18335143 24
14.842664 -11.340523 0.15026346 24.035126
15.197943 -10.292199 0.007304329 24
14.945464 -4.2756801 0.18153895 23.582001
15.122723 -2.9360898 0.35747454 24.084499
15.105733 0.9355157 0.19013304 25.300991
15.192441 1.2556409 0.27445316 26
15.187144 3.9171703 0.059126768 25
14.924304 4.0661306 0.035603285 24.454546
15.171203 -10.939248 0.43410662 24
15.111161 0.94121695 0.59231365 27.057415
15.122714 0.95117068 0.97437942 28.608423
15.187614 1.2338423 1.0514429 29.5
15.098002 0.96586543 1.2578247 29.594357
14.911082 -85.170731 3.2197647 24.067499
15.476083 -0.39968064 -1.2029376 20
15.395599 -30.095922 -0.87949878 21.0525
15.582589 -29.326433 -0.83832735 21.063
15.357244 -29.019415 -0.83092046 21.052999
15.373147 -28.565689 -0.85739964 21.0585
15.303041 -28.296198 -0.8456158 21.053749
15.470265 -27.513704 -0.89825088 21.0585
15.462268 -27.147875 -0.86720371 21.09
15.463892 -26.521399 -0.92479908 21.042749
15.331134 -25.948244 -0.8683601 21.072001
15.575024 -25.200766 -0.95147717 21.047251
15.574883 -24.641111 -0.930933 21.0875
15.458679 -24.13648 -0.9541682 21.04175
15.26321 -23.851217 -0.95221102 21
15.351182 -23.406487 -0.94292313 21.072166
15.39642 -22.608728 -1.0014685 20
15.466123 -22.106131 -1.0242575 20
15.344947 -21.888683 -1.0159141 20
15.349533 -21.378359 -1.0312051 21.02
15.455311 -20.986526 -1.0273067 20.578501
15.385642 -20.662058 -1.0317423 20.26825
15.44792 -20.065714 -1.0511855 20
15.411447 -19.810219 -1.0532149 20.356501
15.323079 -19.456175 -1.059898 20
15.585168 -18.75725 -1.048455 21.069
15.413508 -18.088501 -1.0510547 19.799999
15.452537 -17.73558 -1.0624585 20.261126
15.421888 -17.419884 -1.0728543 19.200001
15.323697 -16.975798 -0.96416634 20.5
15.380693 -16.586031 -1.0108671 20.266624
15.555594 -16.295536 -1.0814773 19
15.441982 -15.682957 -1.0653862 19.43457
15.433745 -15.311177 -1.0755318 18.666666
15.391402 -14.95301 -1.0745592 18.6
15.300572 -14.54117 -1.0745898 19
15.360632 -14.162313 -1.0916921 18.333334
15.526068 -13.743005 -1.0923277 17
15.379342 -13.319928 -1.099189 17.200001
15.468811 -12.868403 -1.0990088 18
15.408205 -12.579294 -1.1031245 17.4
15.406747 -12.177829 -1.1163135 18.435787
15.47883 -11.842533 -1.1123294 17.5
15.404681 -11.412053 -1.1159532 16.272728
15.384119 -11.025833 -1.0979998 18.587584
15.425976 -10.636386 -1.1176039 15.090909
15.372387 -10.223083 -1.0751182 15.5
15.427709 -9.7983913 -1.1187627 14.686182
15.407745 -9.4111252 -1.1182288 15.458333
15.477793 -9.0085649 -1.1239135 13.527778
15.333326 -8.5477962 -1.1269157 11.258333
15.451269 -8.2991333 -1.1288613 13.183333
15.401301 -7.7705917 -1.1286784 12.444445
15.40037 -7.3813968 -1.1302202 12.339395
15.416055 -6.9610467 -1.1303474 12.184848
15.441673 -6.5755711 -1.1377488 11.96713
15.375909 -6.1700969 -1.137099 16.4
15.392145 -5.7796264 -1.1359681 16.083334
15.426725 -5.441844 -1.1404699 14.111111
15.354121 -5.0047536 -1.1477803 11.757738
15.42001 -4.6216655 -1.1515216 11.952381
15.378486 -4.1710215 -1.1513742 12.255556
15.436823 -3.7635872 -1.1579151 12.916667
15.36504 -3.3924568 -1.1550642 13.520833
15.398966 -2.9930241 -1.1589241 14.156921
15.451398 -2.6004169 -1.154965 14.777778
15.4139 -2.2052162 -1.1519563 14.027778
15.419035 -1.8002523 -1.1494271 15.583333
15.391444 -1.4160136 -1.1604215 16.433332
15.37714 -1.0079619 -1.1578072 17.153847
15.40492 -0.62216324 -1.1685618 16.692308
15.379354 -0.15472691 -0.99164212 18.760414
15.541204 2.8788486 -1.0783228 18.333334
15.411659 3.4313722 -1.1024622 18.25
15.351775 3.7783794 -0.91772187 19.343477
15.375927 -43.800739 -0.4029623 22.047501
15.542717 -37.029175 -0.61942035 22.0485
15.528833 -36.101273 -0.66263503 22.049
15.455794 -21.436846 -0.41558975 23
15.329448 -11.008353 -0.43803921 22
15.326378 -10.272455 -0.55917054 20.424999
15.214619 -4.0641088 -0.73407829 21.0825
15.259297 -3.7949653 -0.73296076 21.083
15.539167 -3.5298285 -0.74283278 21
15.456879 -0.082812004 -0.75517935 20.972607
15.37015 0.01636105 -0.74054772 20.386833
15.37803 0.69985694 -0.56222695 21.460114
15.240623 0.95564955 -0.55265576 21.166349
15.289042 1.3022163 -0.55169362 21.018867
15.583323 1.6594167 -0.57283705 21
15.527756 2.3433692 -0.57556164 21
15.468289 2.5639594 -0.59868866 20.591665
15.450645 2.9100535 -0.63113666 20.444445
15.382094 3.7753859 -0.57330883 21.302855
15.468371 -44.538586 -0.37110615 22.0485
15.308718 -44.094578 -0.37143862 22.058001
15.566066 -16.820223 -0.32961813 23
15.409818 -16.764956 -0.32935479 23
15.26479 -10.839531 -5.1616544e-06 23
15.532322 -10.544342 -0.3404758 21.567499
15.438005 -10.280021 -0.17458107 22.726049
15.585314 -3.4936683 -0.37068996 22
15.339347 0.73852789 -0.21660756 23.147676
15.332516 0.93042761 -0.16943206 23.986717
15.249294 1.2710203 -0.19162685 22.778656
15.532059 1.6622843 -0.27213913 22.333334
15.462227 2.3689108 -0.2127367 22.076
15.466813 2.5937784 -0.18822742 22.39537
15.473354 2.8687725 -0.31016648 22
15.506223 3.5702856 -0.30343011 21.767832
15.367205 3.8000257 -0.19001226 23.064678
15.474138 -21.466173 0.19616246 24
15.440495 -16.883139 0.19095846 24
15.412984 -10.219892 0.17456892 25.016312
15.245583 -4.0491095 0.36606801 24
15.257751 -3.1680532 0.36163396 24
15.40225 0.71595985 0.21905877 25.68968
15.298189 0.91633195 0.1563549 24.959333
15.251052 1.2710699 0.17481211 24.375475
15.560119 2.3365912 0.084531799 24.107
15.529331 2.6695759 0.15811363 24.013357
15.337718 3.8550637 0.064004891 24.552216
15.241118 -10.822715 0.43385106 24
15.369595 0.75054371 0.61626452 28.207937
15.327353 0.94874471 0.61996716 27.607508
15.273754 1.2941825 0.60939842 26.155167
15.424865 0.73094541 0.9974736 29.179455
15.301643 0.97868109 0.98457682 28.211533
15.256878 1.2830105 0.99220741 27.582901
15.493024 0.72026104 1.2415277 28.934698
15.258046 0.92608273 1.2167196 28.75
15.292515 1.2919137 1.2559528 27.5175
15.524772 -49.96664 2.449466 25.0495
15.22457 -82.578262 2.8433011 24.058001
15.520106 -82.5905 3.3841116 24.085501
15.441922 -82.567604 4.0645709 25.054001
15.739231 -30.284826 -0.88119751 21.052999
15.698308 -29.215235 -0.83313841 21.053499
15.73269 -28.601721 -0.85342747 21.055834
15.746149 -27.740854 -0.89105493 21.077
15.933022 -27.205259 -0.87894326 21.0905
15.879083 -26.165857 -0.87587839 21.0725
15.963444 -25.437092 -0.95453936 21.048
15.805192 -24.546572 -0.9578687 21.043251
15.604214 -24.224474 -0.95675755 21.043251
15.833654 -23.652357 -0.91956794 21.07
15.838439 -23.34449 -0.95852381 21.08
15.68043 -22.170029 -1.0192437 20
15.709483 -21.346401 -1.0318331 20
15.910863 -20.961311 -1.0479401 20.780874
15.83046 -20.607174 -1.055194 20
15.719301 -20.178249 -1.0681431 20.178333
15.845443 -19.479811 -1.0739617 20
15.754977 -18.981161 -1.0670487 20
15.79274 -18.504566 -1.0640165 20
15.80628 -18.109156 -1.063749 19.75
15.852238 -17.796301 -1.0747739 19.200001
15.873699 -16.841871 -1.0759479 19.5
15.829234 -16.660784 -1.0822866 19.51675
15.728625 -15.79589 -1.0823756 19
15.810448 -15.402313 -1.0876309 18
15.770686 -14.965486 -1.0832702 19
15.85693 -14.620443 -1.0946128 18
15.811097 -14.146361 -1.0960836 18.5
15.856903 -13.75028 -1.1042861 18
15.826941 -13.422488 -1.1040337 18.166666
15.758019 -12.985807 -1.1018075 18.4
15.778081 -12.610071 -1.1128217 17.780388
15.61773 -12.185285 -1.1123809 17.333334
15.762228 -11.769253 -1.1235527 18.105099
15.80191 -11.404227 -1.1202781 16.571428
15.786575 -10.957062 -1.1183535 16.805149
15.850949 -10.602939 -1.1151396 16.647285
15.789765 -10.18338 -1.1199323 15.538462
15.835161 -9.7782593 -1.1251459 15.144697
15.782309 -9.3782396 -1.1102039 14.372223
15.830257 -9.0094051 -1.1277288 12.671795
15.798153 -8.6257 -1.1327645 12.745097
15.772027 -8.171031 -1.1333086 14.7
15.840656 -7.8479714 -1.1361206 13.129167
15.853224 -7.4416471 -1.1406517 12.261905
15.777065 -7.0228271 -1.1381309 10.461039
15.775747 -6.5853467 -1.1460069 8.2777777
15.753063 -6.13165 -1.1438673 13.047618
15.873268 -5.7887535 -1.1454884 12.819445
15.842076 -5.3786964 -1.1504909 16.75
15.78392 -4.9332461 -1.1566327 12.786666
15.793941 -4.5310187 -1.1571734 12.916667
15.819108 -4.1914024 -1.1604985 15.575
15.843079 -3.8575759 -1.1569813 14.53125
15.769629 -3.4217656 -1.1629412 13.394444
15.816262 -3.0247228 -1.1617124 13.208333
15.766461 -2.6024525 -1.1658643 15.46845
15.794867 -2.1906714 -1.1649566 15.051283
15.809854 -1.8342825 -1.1620624 15.357142
15.729124 -1.4585233 -1.1624124 16.428572
15.870699 -1.003971 -1.171784 17
15.870656 -0.56515104 -1.1136873 18.01223
15.71071 -0.30839956 -1.0139458 18.794331
15.9947 2.5150573 -0.80449086 20
15.815378 3.1745548 -1.1358141 18
15.82496 3.4452152 -0.98742008 18.972918
15.66986 3.6366489 -0.96856004 18.75
15.882599 -39.713554 -0.57155085 22.049
15.863908 -37.683315 -0.61891961 22.049
15.846498 -36.755386 -0.66546077 22.0495
15.658525 -9.946847 -0.57515627 22
15.99194 -6.8598385 -0.55108738 21
15.65055 -3.462441 -0.74721181 21
15.76845 -0.23616597 -0.76799244 20.305178
15.851656 0.28529385 -0.64430398 21.047499
15.793932 0.5242691 -0.56953287 21.541679
15.814016 1.5233986 -0.76195049 19
15.952835 1.855384 -0.50083154 20.951733
15.910938 2.2076588 -0.53213555 20.870832
15.904264 2.5228319 -0.56931812 20.835234
15.886098 3.5248454 -0.61872822 21.094923
15.68723 3.6375775 -0.59388757 21.127598
15.836287 -46.973064 -0.27602679 22.061501
15.80447 -45.401764 -0.35243943 22.053499
15.676969 -45.05336 -0.33783364 22.0555
15.679697 -12.545097 -0.33033949 23.0495
15.638968 -10.521973 -0.34160042 21.568001
15.703725 -9.9264507 -0.15341859 23.021002
15.986188 -9.3450603 -0.054142021 25.306416
15.969005 -6.843255 -0.2145628 22
15.72861 -3.6210351 -0.37458944 22
15.647687 -3.5076432 -0.37217548 22
15.945555 0.37859136 -0.20676701 22.833334
15.868509 0.52260476 -0.19732852 23.468338
15.925077 0.86122072 -0.14807987 24.034216
15.89756 1.8398019 -0.1823028 22.755033
15.91268 2.1034505 -0.19286168 22.745584
15.837241 2.54954 -0.19839409 22.536926
15.907804 3.5341268 -0.23046656 22.95075
15.718352 3.6633854 -0.20248236 23.052574
15.965802 -50.723621 0.23298666 23.05175
15.738262 -12.620579 0.12096179 24.0495
15.782489 -10.049315 0.26965937 24
15.935132 -9.2907295 0.083469182 27.277752
15.753131 -3.6266809 0.18831882 23.5
15.750736 -3.5462306 0.25063196 23.666666
15.985024 0.37034023 0.25570932 26.333334
15.830833 0.52937603 0.20303288 25.773392
15.803581 1.3940244 0.10184441 23.0905
15.914638 1.7934275 0.17431778 24.154715
15.915246 2.0976441 0.15607876 24.276625
15.769462 2.5466332 0.19755103 23.971542
15.691922 3.6621919 0.026496831 25.053335
15.876456 -50.759979 0.66559011 23.066999
15.868535 -11.550074 0.45552871 24.072001
15.989821 0.37811881 0.66424644 29
15.876899 0.54285187 0.62134272 28.03219
15.822078 0.98294181 0.73225015 29.869112
15.891537 1.8714113 0.56375659 25.416666
15.989115 0.38084263 0.82010365 30
15.82499 0.55373675 0.96759605 29.260155
15.755757 0.94124955 0.88880819 30.835236
15.852869 -51.053234 1.5009612 25.042999
15.7714 0.60154253 1.2324966 29.979021
15.898111 -50.603573 2.1614902 25.052
15.668823 -49.885502 2.4853737 25.053749
16.30287 -2.2583916 -1.2030078 19
16.082113 -30.534395 -0.88460028 21.053499
16.39253 -29.684214 -0.84022146 21.054501
16.048473 -29.451128 -0.84020782 21.05875
16.262083 -28.896982 -0.86486804 21.0515
16.23789 -28.593533 -0.8459217 21.0625
16.318834 -28.177042 -0.88532823 21.042
16.185894 -27.846907 -0.90025628 21.077499
16.330654 -27.144272 -0.89825499 21.076
16.21052 -25.638956 -0.95844722 21.0485
16.339893 -25.219515 -0.95680195 21.044001
16.116838 -24.876631 -0.95908403 21.044001
16.002739 -24.545235 -0.94122398 21.087999
16.379971 -23.860125 -0.92856354 21.070499
16.250769 -23.257544 -0.96897733 21.0805
16.227308 -22.449404 -1.0255636 20
16.128407 -22.28681 -1.018362 20
16.157269 -21.724884 -1.0464934 21.02025
16.096514 -21.513601 -1.0298406 20.684166
16.278181 -21.06654 -1.0562214 20
16.201605 -20.613876 -1.0856946 20
16.186865 -20.380623 -1.0762764 20
16.016058 -19.955944 -1.0780535 20
16.285425 -19.422333 -1.0882183 20
16.221739 -18.962742 -1.0837235 20
16.188858 -18.555075 -1.0788306 19.333334
16.163834 -18.119869 -1.0861932 19
16.178976 -17.878563 -1.0830916 20.522499
16.330292 -17.450016 -1.087544 20
16.222948 -16.876398 -1.0790404 19
16.231285 -16.660212 -1.0861299 19.200001
16.093973 -16.240137 -1.0827981 19.516874
16.228312 -15.664824 -1.0892467 18.666666
16.198341 -15.380311 -1.1047914 18
16.045143 -15.047571 -1.1060251 18
16.240067 -14.565879 -1.0997388 18.6
16.227444 -14.157644 -1.1080481 18.166666
16.144016 -13.859297 -1.1069838 17.5
16.200275 -13.426467 -1.1122072 18
16.223522 -12.985843 -1.075838 18.381187
16.208286 -12.601855 -1.117672 17.466667
16.180851 -12.152234 -1.1169691 18.612101
16.189903 -11.842505 -1.1280216 17.337626
16.170109 -11.376469 -1.1227676 16.5
16.186085 -10.95859 -1.1250989 16.11689
16.202776 -10.624465 -1.1324619 16.416666
16.187532 -10.245543 -1.1313345 15
16.226234 -9.7676048 -1.135259 14.203266
16.152336 -9.392766 -1.0835804 13.697618
16.206596 -8.9900799 -1.1351364 11.833334
16.191475 -8.5870037 -1.1372601 13.865151
16.221087 -8.1861649 -1.1428956 13.65625
16.138052 -7.814899 -1.1432577 12.916666
16.182625 -7.3895345 -1.1438327 12.291667
16.212269 -6.9672122 -1.1500582 8.0646257
16.172754 -6.6431651 -1.0908581 13.319048
16.184422 -6.2459121 -1.1524668 12.240742
16.246149 -5.857554 -1.1566539 8.46
16.216347 -5.390645 -1.159101 11.913725
16.156618 -5.023026 -1.1644155 13.038636
16.182409 -4.6327524 -1.1647389 12.88718
16.177629 -4.1659436 -1.1733279 13.5
16.173903 -3.73737 -1.1707959 14.909722
16.158728 -3.3994589 -1.1708051 12.816667
16.193111 -3.0666723 -1.1709735 15.070513
16.177689 -2.6426129 -1.1683086 14.565476
16.146734 -2.1821666 -1.1739755 15.5625
16.230843 -1.8038751 -1.1750791 15.583333
16.1306 -1.3894473 -1.1717812 16.9375
16.218267 -1.0691216 -1.1769074 16.41675
16.205004 -0.57097876 -1.0457355 18.800835
16.207129 1.7179823 -0.92814022 18.666668
16.075583 2.6060448 -0.83474672 20
16.160427 3.0712793 -1.1215408 19
16.253023 3.3039641 -0.89454496 19.5
16.273996 -40.318432 -0.57784307 22.0495
16.225845 -38.27549 -0.61793733 22.0495
16.163563 -37.512245 -0.66928101 22.049999
16.227268 -26.480646 -0.66019613 22
16.205812 -25.15943 -0.54007715 22.072001
16.265224 -18.139505 -0.61664385 21.060249
16.13452 -9.3549318 -0.57662648 17.892857
16.122042 -6.7572885 -0.54894513 21.036751
16.334236 -0.53227854 -0.77301866 20.165438
16.204453 -0.3014572 -0.75599241 19.692667
16.213753 0.26882085 -0.5577271 21.634014
16.108948 0.54431176 -0.56045759 21.952669
16.140476 0.89029449 -0.65835422 21.363251
16.259048 1.4960958 -0.61310005 21
16.186356 1.7928596 -0.58154476 20.742071
16.131081 2.2296643 -0.59888488 21.118799
16.050747 2.5600126 -0.58788347 20.950001
16.23156 3.3689201 -0.61515743 21.192392
16.16264 -46.390862 -0.36707306 22.050499
16.043888 -45.728809 -0.37407494 22.0585
16.301683 -9.6040659 -0.13393614 24
16.194496 -9.3830976 -0.14916746 23.887604
16.017056 -6.7317786 -0.102665 22.333334
16.173611 0.32437703 -0.19117688 23.715988
16.111288 0.49055696 -0.22644208 23.999434
16.0305 0.81671399 -0.11114175 24.141001
16.193071 1.5113074 -0.15391585 22.5
16.176201 1.8192508 -0.1825466 22.861698
16.163212 2.2121627 -0.18980308 23.211103
16.069054 2.5558462 -0.18749453 23.138838
16.198792 3.4311454 -0.21782099 23.089943
16.205965 -26.800335 0.038766101 23.0665
16.246128 -26.668736 0.035872355 23
16.14168 -24.966812 0.13780822 23.072001
16.140762 -9.2764835 0.17269783 28.592113
16.16853 -6.9065332 0.12293103 23.036751
16.088169 -6.7018857 0.11969055 23
16.204224 0.31990686 0.17463823 25.619101
16.085005 0.53179371 0.19615994 26.248421
16.131195 0.89087158 0.29574597 27.153751
16.277914 1.5178367 0.20115884 24.5
16.20006 1.8093609 0.220543 24.930727
16.166479 2.2578292 0.1565109 25.023426
16.091394 2.5155547 0.19509505 25.170969
16.201641 3.4948776 0.047702968 25
16.243832 -50.954453 0.66818184 23.0585
16.137474 -6.762198 0.45527726 24
16.14933 0.35058421 0.62580091 27.983963
16.108356 0.49932548 0.60798627 28.280409
16.14534 0.8287763 0.57934338 28.646252
16.223179 1.856303 0.5232259 26.500959
16.302053 2.0020022 0.52622914 25
16.173237 0.33803844 0.93427813 29.101934
16.082979 0.50955504 0.94403458 29.577999
16.155216 0.88876295 1.1540332 31.157
16.173584 -51.064342 1.4906406 24.054501
16.199038 -50.715992 1.8060286 24.060001
16.274647 -50.916924 2.663219 25.0625
16.215326 -50.534382 2.6058071 25.054001
16.105268 -50.081448 2.4430659 25.049999
16.287704 -50.887413 3.0661774 25.076
16.138742 -49.709229 2.9994736 26.052
16.149315 -50.326294 3.2570539 25.063499
16.58057 -5.7325768 -1.2000326 20
16.680428 -4.1479597 -1.2014997 20
16.697197 -3.742276 -1.203223 12.5
16.491907 -2.1159539 -1.208549 19
16.783562 -1.240888 -1.2002974 15
16.449091 -1.1755627 -1.2033113 17
16.651579 -29.739601 -0.84681022 21.0595
16.621277 -29.12793 -0.86900866 21.052
16.696983 -28.718313 -0.85139573 21.063
16.6464 -28.293676 -0.89971036 21.05125
16.588366 -27.667107 -0.90435654 21.096001
16.695847 -27.278513 -0.91521305 21.061501
16.460249 -26.419634 -0.88488889 21.073
16.621855 -25.839933 -0.96109867 21.04925
16.635023 -25.357027 -0.96243876 21.045334
16.425777 -24.430309 -0.9512459 21.088499
16.7722 -23.283272 -0.9862498 21.080999
16.650208 -22.913965 -1.0494053 20
16.584108 -22.690681 -1.031212 20
16.596037 -21.791397 -1.0510069 21.022875
16.605486 -21.389025 -1.0639111 20
16.578775 -20.964901 -1.0812007 20.2148
16.546709 -20.558084 -1.0852334 20.778999
16.670658 -19.770731 -1.0960011 20
16.400566 -19.332834 -1.0953214 20
16.580057 -18.536592 -1.0996125 19
16.534496 -17.919586 -1.0901742 19
16.593485 -17.295109 -1.0931745 20
16.602421 -16.926313 -1.0960077 19
16.625307 -16.716976 -1.0898261 20
16.770323 -16.150183 -1.0981839 20.034
16.588131 -15.778296 -1.0990713 18.333334
16.479155 -15.520527 -1.1122787 18
16.58189 -14.887462 -1.0860232 20
16.682753 -14.609602 -1.1086649 18.666666
16.654427 -14.23259 -1.1202291 17.875
16.598776 -13.827367 -1.1169442 18
16.568939 -13.414855 -1.1133784 18
16.559113 -13.009273 -1.1186273 17.25
16.574274 -12.635746 -1.1295005 17.753958
16.582031 -12.173724 -1.1268874 16.299999
16.538202 -11.839712 -1.1309505 18.574944
16.551842 -11.382614 -1.1329153 16.818182
16.705456 -10.953712 -1.1341608 15.777778
16.62307 -10.656547 -1.1397126 15.456131
16.633444 -10.22598 -1.1442333 14.671569
16.620789 -9.9050789 -1.1473218 15.5785
16.598618 -9.4399624 -1.1420574 12.136364
16.598461 -9.01542 -1.1396096 14.486111
16.672026 -8.6437664 -1.1455855 12.906085
16.561127 -8.2245684 -1.1444358 13.964286
16.584694 -7.8722534 -1.1474289 13.977778
16.601774 -7.433125 -1.152633 10.316327
16.586517 -6.9835677 -1.1561104 10.75
16.616879 -6.5896072 -1.1606746 8.3095236
16.635607 -6.1925902 -1.1620854 10.5
16.575535 -5.7939401 -1.1647936 10.891536
16.594215 -5.3015394 -1.1665395 13.011905
16.572374 -4.9937377 -1.1720011 13.584126
16.62673 -4.611587 -1.1789135 14.659374
16.571606 -4.2218957 -1.1770443 13.483334
16.590807 -3.8136146 -1.1791458 13.696428
16.5991 -3.4196887 -1.1767231 13.773148
16.557457 -2.9734321 -1.1795228 14.964286
16.604181 -2.5686657 -1.1776052 15.333333
16.596857 -2.2207839 -1.1797252 15.6
16.608137 -1.7640373 -1.1873007 16.25
16.459122 -1.3926858 -1.1726203 16.333334
16.659952 -0.90757656 -1.0918885 18.234379
16.588058 -0.72623074 -0.99175286 19.004654
16.640669 3.0689628 -0.94009876 19.846153
16.499699 3.2374849 -0.85150123 20.133667
16.768017 -41.264397 -0.41603211 22.042751
16.675989 -41.094933 -0.52769649 22.016668
16.48538 -38.306683 -0.67356604 22.050501
16.568153 -33.785072 -0.79797316 21.0655
16.509422 -26.911842 -0.6703276 22
16.787556 -18.598183 -0.63204229 21.061501
16.569691 -17.858685 -0.60920554 21.061001
16.69231 -0.6794129 -0.76455605 20.4643
16.70726 -0.10216578 -0.63685769 21.058393
16.563639 0.14781488 -0.57043582 21.550203
16.539095 0.48368651 -0.5926224 21.064499
16.614218 1.0977753 -0.7742222 20
16.4123 1.9524494 -0.54655635 21
16.475266 2.2723203 -0.56389821 21.1035
16.683912 3.1287737 -0.59642959 21.237858
16.480429 3.2481422 -0.61263841 21.25325
16.772896 -48.655212 -0.2796379 22.062
16.653208 -47.294949 -0.36777493 22.050999
16.703426 -41.251926 -0.36326087 22
16.791103 -18.687309 -0.3455779 22.061501
16.445957 -9.5654955 -0.24903072 22.520376
16.755903 -0.019737804 -0.20548594 23.333334
16.60955 0.15682997 -0.19646956 23.672663
16.584702 0.52116042 -0.11204232 24.009998
16.430948 1.7581159 -0.24384035 22
16.71192 3.1383479 -0.23223379 22.869333
16.558483 3.265758 -0.1896964 23.117378
16.702597 -41.275959 0.18347533 23.005953
16.749786 -28.531673 0.069007047 23.068001
16.563229 -26.645247 0.036059182 23.033501
16.796125 -18.79147 0.23257735 24.061501
16.574648 -18.062304 0.20389768 24.061001
16.768959 -0.013316852 0.16838703 25.5
16.580536 0.16237362 0.20740382 25.691385
16.569288 0.49095932 0.28125694 26.465258
16.485153 1.8042773 0.2213857 24.013332
16.542696 2.2785652 0.17742859 24.3535
16.763912 3.1457012 0.0022602775 25.153999
16.531199 3.2913113 0.024470372 25
16.785156 -41.291252 0.58559096 23.333334
16.543482 -26.733782 0.73875797 24
16.576077 -18.107962 0.48184937 25.061001
16.758482 -0.019445937 0.58954722 28
16.606157 0.17547931 0.61929911 28.077023
16.599735 0.52285391 0.65845156 29.064901
16.405844 1.9965551 0.42182648 25.435999
16.730106 -41.277325 0.96652567 24
16.605991 0.16873445 0.97567683 29.381186
16.592651 0.48875529 0.99168354 30.858633
16.479902 -50.912189 1.4286855 24.381998
16.775213 -41.283493 1.4621555 24.5
16.622358 0.17407998 1.2289611 28.5
16.526672 0.44641584 1.24578 30
16.534517 -50.936745 1.9017704 24.073999
16.754435 -41.238316 1.7846383 25
16.714174 -50.454861 2.1877668 25.052
16.675741 -50.129826 2.109344 25.052668
16.751799 -41.274437 2.2606702 25.666666
16.470932 -50.780087 2.6280067 25.059
16.655708 -49.664177 2.5086434 25.056499
16.763208 -41.228844 2.615726 26
16.558437 -51.449589 3.1394038 26.054001
16.424665 -50.977325 2.9378648 25.060499
16.734163 -41.220226 3.0724204 27
16.73835 -51.732933 3.2961545 25.092501
16.752377 -41.188404 3.2562878 27
16.73243 -41.042789 3.8619411 28.01
16.741526 -41.072311 4.0740714 28
16.894154 -5.6024976 -1.2093316 20
16.895653 -4.6177497 -1.2020648 17
17.192379 -3.998812 -1.201425 8
17.05715 -3.4182084 -1.2074671 16.375
17.121431 -3.0527427 -1.2076589 18.5
17.11153 -2.568038 -1.2058439 17.25
17.051386 -2.164216 -1.2023652 15.666667
16.910234 -1.8351982 -1.2062802 17.25
17.146896 -1.3797301 -1.2065508 17.75
16.993172 -1.0557534 -1.2142478 17
17.151035 -33.96286 -0.80544055 21.066
17.111906 -30.083591 -0.84676188 21.0555
17.02043 -29.748009 -0.85713559 21.064501
17.061016 -29.404118 -0.87389648 21.052624
17.197863 -28.810444 -0.88712323 21.043501
16.917198 -28.597782 -0.88605946 21.042999
17.057463 -28.336264 -0.91742587 21.060499
17.126165 -27.698915 -0.9314968 21.071251
17.001959 -27.36768 -0.91294783 21.07675
17.040771 -26.639648 -0.89337987 21.0735
17.016676 -26.233845 -0.94520837 21.062
16.915787 -24.254044 -0.9519034 21.08
16.988113 -23.357759 -1.0293571 20.53475
16.967787 -22.942667 -1.0378019 20
16.941629 -22.353937 -1.0417943 20
16.99304 -21.773115 -1.0598673 20
17.046532 -21.324718 -1.0769159 20
17.003637 -21.001768 -1.0730433 20.179083
17.107601 -20.515196 -1.0970632 20.681999
16.993179 -20.17527 -1.0993317 20
17.027367 -19.014708 -1.1253591 19
16.890472 -18.68586 -1.0878359 19
16.852726 -18.126322 -1.0918145 22.0455
17.085188 -17.728323 -1.0921749 19.333334
16.983059 -17.343098 -1.0974823 19
16.994808 -16.903631 -1.1003075 19
17.121599 -16.475212 -1.1175203 19
17.079451 -16.181292 -1.1196094 18.5
17.005983 -15.768333 -1.1142032 18.714285
17.005865 -15.502558 -1.1122159 19
17.040892 -15.020873 -1.1163436 19
16.989998 -14.593895 -1.1148348 18.4
16.958437 -14.208397 -1.1286858 17.5
17.093697 -13.387615 -1.1217092 18.5
16.967497 -13.007474 -1.1288559 16.5
17.003252 -12.587316 -1.1360964 18.508001
16.982553 -12.211189 -1.1308416 17.071428
17.009964 -11.758519 -1.1378044 17.256561
16.963257 -11.437551 -1.1370581 15.9375
16.998886 -11.05002 -1.1369089 15.363636
16.9841 -10.626891 -1.1438509 14.111111
17.0301 -10.188529 -1.1494212 15.356668
16.999027 -9.7605543 -1.10092 12.933614
17.003357 -9.3887825 -1.1490079 12.676471
17.003817 -8.9309883 -1.1500198 12.051021
17.034256 -8.5781651 -1.1496457 13.631944
16.996029 -8.2210293 -1.1506914 14.026786
16.94486 -7.7793469 -1.1517913 13.233631
16.947626 -7.4319377 -1.1590693 13.527778
17.006121 -7.0340991 -1.1625853 12.965278
17.029299 -6.6351838 -1.1671572 12
16.984667 -6.1368551 -1.1701735 11.5375
17.01046 -5.7632856 -1.1743199 11.88492
16.94285 -5.3973551 -1.1781373 10.333024
17.033905 -4.9951396 -1.1839696 13.066667
17.061146 -4.591949 -1.184189 13.901516
16.989235 -4.2191901 -1.1839143 14.1
17.000603 -3.8061659 -1.1865829 15.204443
17.000772 -3.3937147 -1.185365 14.883333
17.012533 -2.9873469 -1.1873106 15.2
16.981255 -2.585254 -1.1877639 16.454546
16.975025 -2.3182347 -1.1859431 16
16.961277 -1.8721999 -1.190352 15.875
16.957659 -1.3726074 -1.1948708 16.166666
17.011505 -0.93818146 -1.0140241 18.81282
17.073416 2.9926841 -0.90454978 20.136875
16.946325 -41.282841 -0.48951563 22.016832
17.018682 -41.181709 -0.51611471 22
16.940096 -39.737118 -0.61793208 22.050501
16.887917 -39.244858 -0.69614595 22.052999
16.832916 -39.147156 -0.67826968 22.051001
17.076242 -9.7410955 -0.58751994 17.510204
16.997726 -6.5863199 -0.77602637 1.25
17.111305 -0.92359996 -0.78650635 21.109499
16.926706 -0.74619782 -0.76078314 20.051666
17.004562 -0.10367692 -0.58236158 21.533976
16.843079 0.02311101 -0.54342318 21.5
16.982018 1.0588181 -0.77851009 20
17.141613 2.7288823 -0.67286777 21.108
16.974548 2.9808383 -0.54810029 21.531038
17.082226 -48.519787 -0.3537837 22.0525
16.95397 -47.611164 -0.32054332 22.087999
16.854528 -47.549984 -0.37735236 22.059
16.934418 -41.242191 -0.31621277 22
17.01211 -9.6291094 -0.13997941 24.113636
17.167063 -4.4221401 -0.37836516 22
17.159462 -4.3412652 -0.22733252 22.5
17.181761 -0.13397208 -0.37368354 23
16.840324 0.26146263 -0.15467173 24.382774
16.828037 0.43788183 -0.20739295 24.550192
16.968821 3.0492632 -0.17593656 23.428637
16.806919 3.2008951 -0.15918696 22
16.879938 -41.258038 0.24071382 23
17.184061 -32.97039 0.24354935 24.048
17.192537 -26.456663 0.034617353 23.067499
16.991093 -9.673727 0.1401981 28.337418
17.052782 -9.5802822 0.19306055 29.25
17.194246 -4.2944698 0.023054846 23.333334
17.033236 -0.077119865 0.21641482 26.071302
17.054329 0.1156501 0.22603425 26.304468
16.826418 0.45010942 0.04876142 25.164331
16.975861 -41.27552 0.57883 23
17.054586 -0.076632909 0.44027364 27.4384
16.889189 0.14777179 0.56480181 28.007746
16.856657 0.45591265 0.65076184 28.34849
16.94408 -82.417618 0.97223788 25.031
16.895548 -41.288685 1.1015717 24
17.045502 -0.069251537 1.0132302 29.407421
16.886459 0.12856619 0.95072836 29.690285
16.954863 0.45067269 0.83312869 29.772749
16.917728 -41.30735 1.4357618 24
16.990126 -0.05331428 1.2325131 28.774834
16.856937 0.031881377 1.2149432 30.08075
16.939669 -41.253502 1.7610712 24.714285
16.878616 -41.267563 2.2639933 25.4
16.962042 -50.471157 2.417675 25.049999
16.888325 -50.113976 2.5622604 25.054001
16.958431 -41.242493 2.6041002 25.6061
16.906143 -41.237869 3.0546157 26.6
16.923697 -41.275211 3.3493919 26.5
17.050016 -41.061882 3.4413543 27
16.869007 -41.226974 3.7956934 27.548
16.931082 -41.093918 3.8322773 27.77173
16.953552 -41.246231 4.2664871 27.5
16.965317 -41.092766 4.0681381 27.375
17.370125 -5.3563461 -1.2107219 19
17.502945 -5.0754089 -1.2013773 16
17.3372 -4.2639685 -1.2112043 17
17.265982 -3.788656 -1.2016697 9
17.393627 -3.4292431 -1.2046093 14.166667
17.435717 -2.9615765 -1.2073932 15.208333
17.357281 -2.5213473 -1.2106102 16
17.445997 -2.0687773 -1.2054101 17
17.404549 -1.7721593 -1.2078345 16.444445
17.422928 -1.3821433 -1.2082371 17.111111
