# .PCD v0.7 - Point Cloud Data file format
VERSION 0.7
FIELDS x y z intensity
SIZE 4 4 4 4
TYPE F F F F
COUNT 1 1 1 1
WIDTH 1181
HEIGHT 1
VIEWPOINT 0 0 0 1 0 0 0
POINTS 1181
DATA ascii
-21.002029 -6.4567909 1.1036832 25.005001
-21.130804 -6.3992743 1.6514635 26.004499
-21.106375 -6.4880767 2.1827567 27.005001
-20.814215 -5.6132631 2.1327379 27.004499
-21.184019 -6.1315823 2.536427 27.394667
-21.065674 -5.7907538 2.625443 28.005749
-20.967772 -5.791976 2.8723631 28.060501
-20.656502 24.080088 -0.028055135 23.151501
-20.641563 -6.6992574 0.53065914 24.006001
-20.589436 -6.682755 1.0435218 25.006001
-20.681963 -6.3145256 1.5536604 26.005501
-20.500843 -5.5558314 1.3740345 25.003
-20.65218 -5.494791 1.9229954 26.337835
-20.736507 -5.6170502 2.2425187 27.002001
-20.713778 -5.5108194 2.1335721 27.003166
-20.465992 -7.0251188 2.5585904 28.007999
-20.539848 -6.2877116 2.6551194 28.005001
-20.765064 -5.6411133 2.4050877 27.175501
-20.695963 -7.3420911 2.853411 28.0035
-20.738951 -5.9727612 2.8111899 28.002001
-20.076569 -9.4479084 0.019407222 23.009501
-20.186916 -9.0677252 0.019481109 23.009001
-20.274027 -5.8015432 1.5343019 26.005499
-20.22368 -5.8568139 1.7955111 26.296501
-20.224001 -7.2900391 2.2894337 26.5895
-20.206717 -7.0248394 2.1733167 26.729002
-20.131668 -5.7784748 2.0830374 27.004
-20.155191 -6.5519896 2.5634267 28.0065
-19.615225 -10.093859 0.018883817 23.0105
-19.717934 -9.7102728 0.01894583 23.01
-19.814245 -9.4004879 0.0006290967 23.012751
-19.647917 -42.550438 1.188195 24.0285
-19.957798 -41.308479 1.1651809 24.028
-19.955471 -6.8683748 2.3599329 27.177
-19.913694 -6.5416508 2.1052251 26.670832
-19.77915 -7.1613975 2.4604259 28.01
-19.547546 2.7277091 -0.11406934 23.1665
-19.553394 3.0734828 -0.11846632 23.171499
-19.429165 -9.9134989 0.00063028879 23.0135
-19.364098 -8.6254368 0.010453098 23.008751
-19.311493 -28.623243 3.3965235 27.021
-19.324194 -27.634893 3.323045 27.0205
-19.286882 -23.903875 6.1410942 31.018499
-18.834352 -27.009865 4.0645595 28.0205
-18.509212 41.091084 -0.05312942 23.143
-18.52187 -12.159079 0.017764868 23.0135
-18.428644 -11.97755 0.00064714905 23.0165
-18.570135 41.047935 0.056964956 23.140499
-18.502371 41.085491 1.0726525 24.142832
-18.68619 -26.804789 3.9153299 28.024
-18.67465 -27.780659 4.1250496 28.021
-18.01075 4.1822844 -0.40918145 22.17
-18.02339 4.5293546 -0.41159925 22.1695
-18.175503 3.0594084 -0.11522523 23.166
-18.359459 37.964722 -0.23525344 23.145
-18.262215 41.186363 -0.00035726861 23.146999
-18.149443 -12.247246 0.00064608833 23.017
-18.344152 37.942661 0.77166432 24.145
-18.260515 41.182594 1.0457534 24.146999
-18.252195 -30.445215 1.6929235 25.025999
-18.137156 38.181503 1.9841613 25.145
-18.269064 41.201954 2.1018598 25.146999
-18.157883 -28.111286 4.1188927 28.0215
-18.006981 -22.726288 5.9215131 30.015499
-18.193743 -22.723619 6.0598893 30.019501
-17.959883 4.8601789 -0.41259015 22.169001
-17.936432 2.9062366 -0.041066602 23.165001
-17.625183 -48.856216 0.024805227 23.032
-17.670322 -48.983536 1.2362723 24.032
-17.843277 38.237331 1.9749461 25.1455
-17.802807 38.650826 1.980479 25.144501
-17.624552 -28.343567 2.3872042 26.025499
-17.900454 38.181057 2.0440228 25.140251
-17.897631 38.957523 2.0354791 25.1485
-17.867378 39.380749 2.0286829 25.144501
-17.902845 39.886326 2.0575459 25.142334
-17.88098 40.203751 2.0552955 25.146252
-17.799259 40.569817 2.0736029 25.143499
-17.950411 41.10915 2.1302125 25.1385
-17.946743 -27.81794 3.2551622 27.0215
-17.696371 -27.403063 3.9029119 28.025
-17.994699 -23.297632 5.8893633 31.018999
-17.710388 -22.969952 5.9124584 30.51825
-17.798525 -23.220369 6.0732369 30.02
-17.604057 -22.937372 6.3251715 31.016001
-17.433342 -12.212366 0.00062969042 23.0175
-17.352846 -26.897875 2.2922986 26.025
-17.52026 -28.18857 3.1657846 27.025499
-17.338722 -23.494717 5.9493318 31.019501
-17.593794 -23.175623 5.9192829 30.016001
-16.916931 -11.311315 -0.036517534 23.009501
-16.954035 9.0910492 -0.39951971 23.171
-17.130486 38.878765 -0.2390842 23.143999
-17.096331 -12.426648 0.00062631583 23.018
-17.021503 -26.757666 0.76687133 24
-16.998167 -26.726427 1.5308466 25
-16.946157 -29.889498 1.6903784 25.025999
-16.890366 -26.636513 2.2939849 26
-17.121681 -26.374949 2.3115416 26.0135
-17.013718 38.285778 2.0651717 25.140499
-17.030178 -26.260252 3.0607345 27.019249
-17.03088 -23.685553 3.5041127 28.0235
-16.927605 -26.720785 3.7849476 28
-16.94058 -23.692822 3.6133986 28.02
-16.902765 -30.638435 4.1703672 28.027
-17.037025 -30.055241 4.1583781 28.025999
-16.626038 4.3746552 -0.41935948 22.1705
-16.599621 -12.509677 0.00061696005 23.018499
-16.48782 -12.034683 0.0039158789 23.0145
-16.564888 -27.797054 2.3125544 26.025999
-16.457319 -32.418301 2.5867374 26.028
-16.564445 -31.309868 2.5228953 26.0275
-16.716053 -26.824999 3.0625532 27
-16.784243 -26.752731 3.0607586 27
-16.432766 -24.646296 3.5515137 28.0245
-16.702171 -22.678265 3.5323727 28.019501
-16.564253 -21.760561 3.408493 28.018999
-16.69504 -26.799088 3.7768831 28
-16.42588 -22.897966 4.0697088 29.0235
-16.577139 -21.024689 4.695756 30.018499
-16.647385 -22.526966 4.8918147 30.019501
-16.114614 19.763348 -0.17048158 23.1525
-16.320707 38.949577 -0.2396888 23.143499
-16.360929 -29.708673 1.6135269 25.027
-16.195124 38.346035 2.0488305 25.139999
-16.151817 -30.973213 2.5374172 26.027
-16.099936 -29.630833 2.451951 26.026501
-16.195709 -28.624556 3.1720262 27.025999
-16.200188 -22.920584 4.1874876 29.02
-16.216801 -21.335257 4.0548196 29.018999
-16.159872 -21.182173 4.6686664 30.018999
-15.730591 20.17318 -0.17212725 23.152
-15.958565 -54.622406 0.36067289 23.0315
-15.843673 91.711212 0.78537399 24.1415
-15.950429 -32.838062 1.7307661 25.0285
-15.636708 -32.66787 1.7735482 25.028
-15.880058 -28.89485 2.3514299 26.027
-15.898089 -28.116198 2.3508573 26.025999
-15.821757 5.5964842 2.0252385 27.1745
-15.894108 6.1065679 2.2001925 27.668499
-15.94385 41.18885 2.1718628 25.139
-15.698484 -31.978306 2.5851364 26
-15.688564 -32.081188 3.4348538 27
-15.615811 -21.294561 3.95509 29.019501
-15.906297 -31.409668 4.18928 28.028
-15.942372 -23.093418 4.0497165 29.024
-15.687001 -21.591419 4.7638788 30.019501
-15.852201 -21.014557 4.7086906 30.018999
-15.707271 -21.407299 5.329082 31.019501
-15.927048 -22.042318 5.9800577 31.0165
-15.895793 -22.851643 6.0866842 31.017
-15.781018 -21.842842 6.3474426 31.018
-15.250401 3.4785068 -0.44043007 22.16925
-15.247637 3.9616144 -0.44304705 22.168501
-15.390802 4.1574106 -0.46125594 22.1705
-15.207034 4.5468979 -0.46056649 22.17
-15.35544 10.251238 -0.42582539 22.161249
-15.261012 10.742201 -0.4332886 22.1625
-15.461865 20.588476 -0.17374294 23.151501
-15.2493 38.227459 -0.043988917 23.138
-15.303811 6.2379756 0.38899928 24.164249
-15.272571 38.186096 0.043749455 23.1395
-15.460964 41.323177 0.073290281 23.13925
-15.20473 6.5298138 0.88914609 25.160999
-15.262209 38.207775 0.98613435 24.13875
-15.460531 41.324947 1.1135772 24.13925
-15.272547 5.7098923 1.2358487 26.167
-15.553956 5.0776982 1.8903276 27.163
-15.473127 5.4866519 1.9255635 27.165249
-15.376192 5.7998176 1.7457675 26.766348
-15.256601 6.2465897 1.6172309 26.1705
-15.373988 5.4149079 2.3860395 28.1625
-15.402548 5.7679343 2.244602 27.500999
-15.360494 6.0936403 2.1686077 28.1665
-15.376264 38.380474 2.031924 25.1395
-15.385987 41.378948 2.0730267 25.13975
-15.557115 -32.062504 2.5593493 26.01425
-15.26182 -28.155043 3.0867536 27.026501
-15.528766 -32.166664 3.4347625 27
-15.217852 -31.834717 4.2360859 28
-15.302726 -22.487705 4.0580931 29.0205
-15.377576 -21.236542 4.0041437 29.019501
-15.346155 -21.757746 5.4645252 30.0165
-15.412519 -21.835159 6.2752714 31.0165
-15.249519 -22.518126 6.5247607 31.021
-15.163531 2.991271 -0.43628153 22.17
-14.82826 3.3437569 -0.51793683 22.164
-14.989141 3.7205412 -0.52022457 22.1635
-15.128777 4.1770239 -0.48237786 22.165501
-14.922978 4.5807238 -0.49194583 22.164
-15.087391 4.9019217 -0.45280701 22.168251
-15.096089 10.518699 -0.42342889 22.15975
-15.021823 10.968381 -0.42967635 22.160086
-14.924814 11.328075 -0.4287762 22.664749
-14.8478 6.2789364 -0.1223249 23.166
-15.199174 21.016729 -0.17540286 23.150999
-15.004709 21.530935 -0.17734383 23.150499
-14.86628 6.3017983 0.21051678 24.1735
-15.146477 38.273033 0.74091536 24.143
-15.144772 5.3575554 1.0920285 25.17025
-14.931226 5.8023062 0.85726154 25.1625
-14.994157 6.1599483 1.0892304 25.16925
-14.885121 5.1624403 1.2334204 26.1665
-15.014246 5.42342 1.3313217 26.1672
-14.958363 5.8618021 1.8499539 27.165249
-14.818316 6.0524211 1.8434799 27.161501
-14.908909 6.5433164 1.8850951 27.664499
-15.074885 38.302414 1.8028988 25.14325
-15.044451 5.2009549 2.2406926 28.164
-15.115944 38.272163 2.0605512 25.144501
-14.999961 5.1885839 2.7031999 29.164
-15.01817 5.3454866 2.5436811 28.671
-14.985528 -27.378119 2.9708741 27.027
-14.876711 -20.877819 4.3357024 30.0235
-14.838978 -21.100895 4.5146022 30.02
-14.992897 -30.083941 4.8407884 29.0275
-14.98853 -21.025652 5.0074806 31.0235
-14.876785 -21.764595 5.4089918 30.018499
-15.022331 -21.459908 5.3091822 31.02
-15.062783 -25.476221 6.3558249 31.018999
-15.17761 -22.412884 6.3204784 31.017
-14.497478 2.6141694 -0.51355237 22.165001
-14.683582 2.9828267 -0.51606303 22.164499
-14.742807 5.2732296 -0.45014167 22.167625
-14.503223 5.6239309 -0.45748734 22.168501
-14.795135 11.086635 -0.4284623 22.159
-14.565358 11.376339 -0.4276391 22.159166
-14.687023 11.88619 -0.43870765 22.1605
-14.536429 12.259776 -0.44154972 22.16
-14.74377 21.972513 -0.17905112 23.15
-14.425153 22.352318 -0.18056013 23.1495
-14.734912 5.5553927 0.75843638 25.167
-14.549335 5.7611127 0.70388681 24.836334
-14.741734 5.7852201 0.88353443 25.1675
-14.584995 6.070334 0.86634851 25.164249
-14.681631 -28.498943 1.5474672 25.0135
-14.581943 -13.594001 1.3943273 26.0215
-14.605731 4.7522087 1.2673001 26.164499
-14.663498 4.9108181 1.3231801 26.163
-14.433294 5.8855829 1.3299104 26.167751
-14.588991 -14.579171 1.9244039 27.022499
-14.58001 -13.124406 1.8303697 27.021
-14.752817 6.3010488 1.9308386 27.1735
-14.620143 6.5395689 1.9012476 27.1665
-14.470626 -16.053865 2.0165777 27.024
-14.632679 -14.120652 2.3112245 27.011499
-14.729581 -13.855143 2.1953888 27.0065
-14.442294 -13.096809 2.0837693 27.00975
-14.714604 -15.710846 2.7486773 28.0135
-14.659214 -14.493026 2.6704133 28.01
-14.642539 -14.19594 2.6115787 27.513
-14.568624 -13.738366 2.7681649 28.0065
-14.618736 -27.870234 2.9927011 27.0275
-14.440788 -31.671051 3.3433444 27.0285
-14.569089 -23.729141 3.335706 28.025499
-14.635745 -14.901256 3.4625676 29.0075
-14.605546 -30.263378 3.9967799 28.0285
-14.410068 -20.857286 4.5327344 30.02
-14.564227 -21.231936 4.9895086 31.024
-14.135346 0.89977658 -0.51361459 22.1675
-14.218759 1.4087436 -0.51278716 22.16675
-14.280399 1.917612 -0.51181173 22.166
-14.39791 2.265923 -0.51278663 22.165501
-14.22327 6.7560062 -0.46056584 22.167
-14.285413 11.543322 -0.42482114 22.157749
-14.276623 11.935098 -0.43196172 22.157499
-14.183681 12.204632 -0.43314591 22.156876
-14.216484 12.505957 -0.43870643 22.157875
-14.109398 12.990797 -0.44537944 22.158751
-14.034506 22.653402 -0.18181589 23.149
-14.232866 -28.488743 0.058763098 23
-14.329598 45.314888 0.32316142 24.148001
-14.190856 -28.523392 0.75109243 24
-14.266871 -14.202514 0.44027281 24.011999
-14.340731 5.9924026 0.5766651 24.167999
-14.217429 -28.463421 0.80616766 24
-14.014379 -14.553064 0.9833293 25.019249
-14.312382 6.3765688 1.096225 26.167999
-14.025716 6.5386086 1.0826827 26.1675
-14.206251 -28.584309 1.5480193 25
-14.35608 -13.875656 1.5269136 26.0145
-14.082942 -13.337137 1.5254661 26.01025
-14.307557 -13.880777 1.6689651 26.011499
-14.077868 -13.12443 1.7958027 27.0215
-14.26714 68.36972 1.7780187 24.131001
-14.234897 -28.575457 2.3026624 26
-14.147349 -14.221292 2.0643046 27.012501
-14.088896 -13.741933 2.0895133 27.009165
-14.273999 -13.29235 2.0493863 27.009501
-14.395623 91.300629 2.1447313 24.1395
-14.156736 -31.071533 2.4733269 26.0285
-14.07377 -24.201118 2.6718574 27
-14.179334 -14.128851 2.7403259 28.00675
-14.239264 -28.622368 3.0567582 27
-14.255116 -14.173915 3.1698964 29.01
-14.289436 -13.870102 2.881458 28.011499
-14.238216 -24.304638 3.3705497 28.008667
-14.323589 -14.822422 3.3863354 30.023001
-14.160822 68.376221 3.2888057 25.1315
-14.215428 -28.63195 3.8241169 28
-14.182647 -14.676674 3.8451033 31.023001
-14.240221 -20.791416 4.2600813 30.024
-14.309818 -29.863464 4.7506175 29.02825
-14.105563 -20.955843 4.4184213 30.0205
-14.311721 -31.015545 4.878552 29.028999
-14.366591 -21.292253 5.1488247 31.0205
-14.024115 68.385643 4.900106 26.1385
-14.203302 -26.30052 5.7646341 31.026501
-14.098018 -25.881147 5.6712856 31.027
-14.21959 -22.21887 6.1586342 31.0175
-14.248647 -21.941494 6.1464515 31.018999
-13.825536 -0.25510341 -0.51438236 22.16925
-13.906874 0.2413862 -0.51283735 22.168501
-13.958024 0.57324207 -0.51192302 22.167999
-13.746972 4.2464576 -0.51489031 22.165001
-13.938398 7.0852051 -0.45964471 22.1665
-13.854175 7.4583287 -0.46120688 22.166
-13.896732 7.8731894 -0.46448645 22.165501
-13.744549 8.2249832 -0.46552438 22.165001
-13.811504 10.377302 -0.42201933 22.16
-13.748565 10.920216 -0.42821005 22.15925
-13.759118 12.966951 -0.43914074 22.155668
-13.7651 13.342004 -0.44503203 22.156502
-13.750831 13.811399 -0.45259809 22.157499
-13.802197 -8.8137989 -0.18136092 23.011
-13.655061 -8.25737 -0.18775421 23.0105
-13.655323 22.977655 -0.18315035 23.1485
-13.676763 -24.176716 0.052195501 23
-13.635421 -14.713855 0.38599733 24.011
-13.810359 -13.801603 0.00057996553 23.022499
-13.863887 -24.292467 0.67855883 24
-13.631067 -14.712571 0.93726814 25.011
-13.992217 -28.653893 1.5117704 25
-13.919808 -24.265352 1.3474877 25
-13.700945 -13.742605 1.5069818 26.007833
-13.913591 -13.514467 1.5322338 26.006001
-13.984408 -24.216141 1.9993573 26
-13.936788 -13.960177 1.6507874 26
-13.691185 -28.779057 2.31092 26.028
-13.855895 -24.304155 2.0189314 26
-13.723764 -14.575171 2.0828829 27.008801
-13.723304 -13.905686 2.0966616 27.0065
-13.833525 -24.231384 2.6783903 27
-13.660699 -14.499517 2.6081617 28.002335
-13.803371 -14.225947 2.5822451 28.0075
-13.66546 -14.547308 3.1142385 29.005167
-13.729251 -24.122288 3.3334737 28
-13.823502 -23.951351 3.3358335 28
-13.750047 -14.368901 3.5749669 30.015499
-13.744374 -23.994038 3.997818 29
-13.63204 -21.487024 3.6724374 29.025
-13.788561 -21.075756 3.7012045 29.012249
-13.995152 -15.108277 3.6884003 30.016001
-13.934784 -24.099995 4.0143571 29
-13.931045 -21.13772 4.2755923 30.0245
-13.627337 -14.492505 4.0778041 30.012501
-13.831151 -15.148409 4.5420856 30.511
-13.678563 -14.713983 4.4979506 30.51025
-13.912518 -30.575083 4.8314795 29.0285
-13.77458 -27.486217 5.1475291 30.028
-13.99192 68.410706 4.8811264 26.138
-13.808738 -27.816116 5.2217293 30.0275
-13.658387 -21.319456 5.2076201 30.018999
-13.961522 -22.051397 6.2875552 31.0215
-13.265942 2.587276 -0.50451064 22.1675
-13.33525 2.9073272 -0.50574005 22.167
-13.410562 3.2321823 -0.50722551 22.1665
-13.54504 3.7256715 -0.51018131 22.165751
-13.525422 4.5196357 -0.51027429 22.164499
-13.512258 4.843749 -0.5104292 22.164
-13.497322 5.3387527 -0.51104206 22.16325
-13.400771 5.8092895 -0.51008618 22.1625
-13.496299 8.5598555 -0.46564254 22.164499
-13.326527 11.405013 -0.42803419 22.158251
-13.440352 13.442609 -0.44219238 22.154751
-13.293245 13.77313 -0.44569463 22.154249
-13.590676 14.135813 -0.45539305 22.157
-13.397318 14.4257 -0.45721313 22.1565
-13.272901 14.80707 -0.46181881 22.156
-13.399042 -13.068992 -0.011072152 23.0145
-13.492551 -12.373316 -0.055541325 23.0135
-13.486039 -9.2357903 -0.17583787 23.011499
-13.32965 -6.0342107 -0.32452887 22.007999
-13.46944 23.560991 -0.18533729 23.148001
-13.241461 24.097506 -0.18737327 23.147499
-13.314208 41.539524 -0.06956616 23.140665
-13.390269 -24.837299 0.051253792 23.026501
-13.471548 -14.05671 0.37569529 24.0105
-13.347859 -13.813401 0.00057002087 23.023001
-13.247375 38.373432 0.19563392 23.567749
-13.487837 41.460964 0.055149674 23.137501
-13.510772 -14.147584 0.48905763 24.015499
-13.523556 -13.99509 0.45230585 24.023001
-13.323527 41.561287 0.7807104 24.141001
-13.213689 38.385685 1.0903729 24.1355
-13.321234 41.529755 0.97629803 24.140249
-13.294573 -14.972688 1.5209696 26.0165
-13.241492 -14.392216 1.544557 26
-13.566747 -13.874867 1.4999131 26.014999
-13.266205 38.347095 1.2748977 25
-13.415459 -13.795581 1.7038881 26.5
-13.304936 41.520332 1.818604 25.141001
-13.346039 -15.336672 2.3775067 28.0245
-13.38185 -14.999792 2.1587818 27.008499
-13.55527 -14.691915 2.029388 27
-13.429678 -13.822716 2.1840763 27.333334
-13.267527 38.358566 2.2752256 26
-13.220438 38.402134 2.0685909 25.1355
-13.268643 -14.418334 2.6943073 28
-13.361097 -14.027575 2.7225494 29
-13.432453 -13.919779 2.7038217 28.674334
-13.294215 -14.975409 3.0672233 29.0165
-13.324165 -13.849523 2.9293666 28.675333
-13.588441 -13.80881 3.2074885 29.0065
-13.494 -20.937654 3.7234271 29
-13.249548 -15.739344 3.9245288 30.008499
-13.466241 -15.406098 3.88622 30.516251
-13.463112 -20.964951 4.3053432 30.008333
-13.411423 -15.151533 4.5174022 30.511625
-13.434343 -28.017904 5.1976509 30.0285
-13.388084 -21.407415 5.1147571 30.519501
-13.506698 -21.027264 4.9524417 31.008333
-13.560312 -21.100491 5.5414624 31.0175
-13.323992 -21.703096 5.7917056 31.018749
-13.354652 -22.932762 6.141377 31.018499
-13.406919 -22.719994 6.1414657 31.02
-13.332005 -22.227903 6.2325082 31.021999
-13.079282 1.3550638 -0.50278294 22.1695
-13.099004 1.6601185 -0.50243211 22.169001
-13.164196 2.1175301 -0.50295019 22.168251
-12.901929 2.9489655 -0.52358729 22.167999
-12.944171 3.3349009 -0.52621013 22.167376
-13.02003 3.7980766 -0.53874594 22.165833
-12.964574 4.1996303 -0.53017658 22.166
-12.880726 4.5781059 -0.55484354 22.163
-12.914945 5.081574 -0.55683041 22.162251
-12.9093 5.5924172 -0.55825233 22.161501
-12.807646 5.9052725 -0.5572108 22.160999
-13.086267 8.820962 -0.46375909 22.164
-13.12747 11.867747 -0.43153265 22.157499
-13.068912 12.239021 -0.43612805 22.157
-12.935997 12.562354 -0.43898559 22.1565
-13.138783 14.10262 -0.44921783 22.153749
-12.934772 14.51589 -0.45363814 22.153126
-13.139235 15.177855 -0.4662388 22.1555
-13.02088 15.582899 -0.47163397 22.155001
-12.881333 15.969007 -0.47651848 22.154499
-12.839454 -13.541141 -0.012334045 23.015499
-13.198428 -12.607348 -0.054822776 23.014
-13.105086 -9.4523287 -0.17265896 23.011999
-13.073682 -6.0696921 -0.33418861 22.012501
-13.174308 -5.9720907 -0.33409554 22.009001
-12.912821 24.51322 -0.18901631 23.146999
-13.091805 25.709642 -0.1932604 23.1465
-13.051748 38.472332 -0.13932627 23.070375
-13.173718 38.430737 0.26900339 24
-13.054919 38.475342 0.72660261 24
-12.998559 38.474171 0.8941142 24.1425
-12.820509 -14.850642 1.5214832 26
-12.956535 -14.598457 1.5209384 26.00425
-13.089153 -13.784492 1.462693 26.010376
-13.153572 38.407463 1.2739756 25
-13.135066 -32.809639 1.6680677 25.031
-13.182661 -13.854994 1.8700008 27.005249
-13.000125 38.496925 1.8572335 25.113102
-12.90091 -15.060396 2.0982082 27
-12.946124 -14.476686 2.0140188 27
-13.068665 -14.200948 2.1370697 27.343666
-13.126591 38.373058 2.2709241 26
-12.942866 -15.203907 2.5678008 28.011999
-12.903437 -15.067526 2.6692328 28
-12.983521 -14.63298 2.5896449 28.008251
-12.864053 -14.29413 2.5146072 28
-12.986865 -15.104684 2.9559345 29.01825
-13.03975 -14.326224 3.0650542 29.262751
-12.880055 -14.624635 3.245887 29
-13.020866 -14.262152 3.2292533 29
-13.13053 -22.407553 3.740298 29.025999
-13.131255 -21.557222 3.6401725 29.025499
-13.00363 -21.017874 3.6896181 29.0215
-13.007191 -14.917683 3.8197317 29.508499
-12.936498 -14.510079 3.874222 30.004333
-13.028099 -14.270288 3.8036509 30
-13.177828 -21.259769 4.3639355 30.0215
-13.039738 -22.269281 4.9846339 31.025999
-12.905499 -21.820974 5.0614543 31.021999
-13.041108 -21.42506 4.8514047 31.025499
-13.007121 -25.029224 5.4271946 31.0275
-12.982693 -21.953932 5.4732885 30.520248
-13.077147 -21.773428 5.9377298 31.018
-12.710621 0.17023212 -0.55356961 22.16975
-12.715022 0.83087379 -0.5517562 22.168751
-12.75242 1.3370165 -0.55145842 22.167999
-12.732571 1.8081938 -0.5503152 22.16725
-12.761443 2.2884552 -0.55047899 22.1665
-12.783486 2.6149948 -0.55081838 22.166
-12.67151 4.3707237 -0.50023317 22.167999
-12.607138 4.646204 -0.50139517 22.1675
-12.517224 4.9207392 -0.50210047 22.167
-12.499145 5.2166119 -0.50470877 22.1665
-12.575843 9.0976267 -0.46121222 22.1635
-12.480782 9.4578314 -0.46350396 22.163
-12.687057 13.002981 -0.44210654 22.15575
-12.486086 13.498414 -0.44706839 22.155001
-12.627218 15.343406 -0.46444958 22.152
-12.692606 16.309774 -0.48001072 22.153999
-12.483156 -13.689815 -0.013300832 23.016001
-12.589855 -13.530497 -0.051750749 23.015499
-12.669751 -5.6489644 -0.35141048 22.008499
-12.416797 39.322643 -0.24271804 23.141001
-12.607078 -14.235302 0.00056167884 23.02425
-12.506731 -15.6634 1.5255767 26.01775
-12.616201 -15.408638 1.4844246 26.014999
-12.659636 -15.087199 1.4951346 26.012499
-12.732446 -13.925264 1.4391017 26.016001
-12.614932 -14.937578 1.9007707 27.018499
-12.570719 -14.446321 1.7866911 27.0245
-12.594871 -14.297076 1.9388185 27.0165
-12.612722 38.672379 1.9078131 25.14275
-12.466465 39.030949 1.8663002 25.14275
-12.502397 39.330326 1.9267045 25.136
-12.420403 40.46558 1.9201025 25.145
-12.446515 40.982189 1.9990119 25.1355
-12.629316 -14.535854 2.0485449 27
-12.480596 39.961273 2.0350301 25.1425
-12.404027 41.498394 2.0954907 25.142
-12.632903 -15.654776 2.609072 28.0175
-12.641952 -15.480209 2.56282 28.012501
-12.578753 -15.056483 2.5532258 28.017
-12.735168 -14.691618 2.626719 28
-12.448652 -23.191265 3.1714239 28.026501
-12.63042 -14.533842 3.1618953 29
-12.499151 -27.373144 3.5794549 28.028999
-12.708719 -14.941755 3.2308524 29.004501
-12.496254 -27.605158 3.6369781 28.0285
-12.500296 -22.315928 3.68995 29.026249
-12.785581 -15.163704 3.8065426 30
-12.796926 -21.885393 4.2707996 30.025999
-12.550816 -21.308769 4.3088298 30.021999
-12.747476 -20.978916 4.1414046 30.025499
-12.570728 -27.523315 5.0589967 30.028999
-12.710505 -27.033684 5.0206246 30.028
-12.48962 -22.301527 4.936913 31.026249
-12.002957 2.5894954 -0.56778902 22.171499
-12.013552 2.9121196 -0.56842667 22.171
-12.057674 3.2458808 -0.56990761 22.1705
-12.174302 3.7501426 -0.57344496 22.16975
-12.116087 4.2398057 -0.57360303 22.169001
-12.363276 5.4770575 -0.50450099 22.166
-12.35049 13.837416 -0.45067292 22.154499
-12.207198 14.175737 -0.45429423 22.153999
-12.031693 14.481423 -0.45705986 22.1535
-12.37475 15.910769 -0.47329894 22.150999
-12.18953 16.203247 -0.47517672 22.150749
-12.302956 16.989676 -0.48722741 22.153
-12.140553 17.39698 -0.4927628 22.1525
-12.184909 -13.781732 -0.032730732 23.016251
-12.36716 -12.868598 -0.054237314 23.014999
-12.152598 -11.791347 -0.1421117 23.011
-12.293447 -11.409329 -0.14162299 23.0105
-12.32508 -11.034586 -0.15258953 23.014
-12.189919 -15.026734 0.00056740671 23.025499
-12.276367 -14.605048 0.00056136923 23.025
-12.176491 -15.873402 1.520267 26.01825
-12.201056 -15.270128 1.8997713 27.021749
-12.322131 -15.017603 1.9788265 27.015665
-12.264129 38.640553 1.9793183 25.137501
-12.37108 39.009045 1.8956311 25.140499
-12.39126 39.741631 1.8723662 25.1415
-12.342118 41.062141 1.968088 25.13975
-12.389172 41.486046 1.9462714 25.141001
-12.307117 -15.329668 2.0281732 27.0175
-12.332856 -14.894387 2.0465143 27.008499
-12.240934 -14.894919 2.524786 28.013
-12.278127 -23.731049 3.1909029 28.0275
-12.0729 -23.205362 3.1253078 28
-12.126967 -23.149313 3.1228759 28
-12.106565 -22.626844 3.6955149 29.017832
-12.083656 -22.552893 4.3145957 30.026501
-12.106043 -21.662525 4.1835928 30.026249
-12.211507 -23.741806 5.1510749 31.027
-12.033134 -26.648548 5.6264615 31.0285
-11.917731 2.9549596 -0.58804041 21.16975
-11.882914 4.5305448 -0.56978077 22.168501
-11.770567 12.128545 -0.47340396 22.154499
-11.755741 15.198002 -0.46580765 22.1525
-11.955986 16.543402 -0.48084778 22.15
-11.848667 -12.073177 -0.14295442 23.011499
-11.656449 39.408417 -0.24335539 23.140499
-11.857072 -53.988232 1.2810251 24.0355
-11.810236 38.795547 1.8911129 25.143499
-11.956563 -29.94137 2.2747531 26.031
-11.730749 -26.67886 2.1106954 26
-11.996824 -15.566631 2.0244365 27.018
-11.768377 -28.815189 2.9851661 27.029499
-11.737938 -26.698847 2.802155 27
-11.710518 -26.644047 3.4930675 28
-11.909977 -22.926395 3.7116225 29.01375
-11.694386 -22.783335 3.6976542 29.027
-11.646256 -26.607937 4.1798291 29
-11.814803 -22.962921 4.3445854 30.02725
-11.922225 -22.640175 4.3005309 30
-11.499296 4.789907 -0.56289816 22.167999
-11.586044 5.1880579 -0.56496495 22.171
-11.583201 5.9145794 -0.56891453 22.17
-11.529711 6.1231804 -0.56977808 22.166
-11.425856 6.5431199 -0.57047582 22.167252
-11.391564 6.8126163 -0.57109523 22.165001
-11.222944 12.168156 -0.48106718 22.159
-11.552858 12.797626 -0.48117125 22.1535
-11.428136 13.129679 -0.48498642 22.153
-11.303258 13.46811 -0.48904097 22.1525
-11.34921 16.378729 -0.48194435 22.150999
-11.451696 17.467596 -0.49216408 22.148834
-11.233227 17.937162 -0.49535716 22.1485
-11.54906 18.541302 -0.50742018 22.150999
-11.33346 18.923626 -0.5123992 22.150499
-11.240726 -14.439475 -0.016423518 23.018
-11.405186 -14.155614 -0.038698021 23.017334
-11.535889 -12.334805 -0.14381056 23.011999
-11.478273 -11.086184 -0.1482991 23.009001
-11.294611 -6.792469 -0.024472715 23.007999
-11.354065 40.042973 -0.13679591 23.144501
-11.220481 -6.612741 0.0031430426 23.013624
-11.379472 -6.1995587 0.0103456 23.011749
-11.332142 -31.48719 1.5771047 25.032
-11.512902 38.701118 1.967961 25.136999
-11.547368 -28.946938 2.9297454 27.031
-11.407157 -27.757931 3.5966959 28.029499
-11.53382 -23.352215 3.7373128 29.028
-10.967076 3.0052798 -0.58894098 21.1705
-11.016998 6.9266777 -0.58647758 21.666126
-11.067393 7.2323647 -0.56885576 22.166124
-10.847659 7.7966375 -0.56731021 22.16325
-11.096655 13.727474 -0.49076223 22.152
-10.896702 14.000326 -0.49294111 22.151501
-11.159014 16.724895 -0.48608419 22.150499
-10.965169 17.075869 -0.49041724 22.15
-11.096681 17.879095 -0.49888137 22.148001
-11.045671 18.341854 -0.50133872 22.148001
-10.800782 18.451588 -0.50798607 22.147249
-11.088503 18.921415 -0.54831499 22.143499
-10.996293 19.321693 -0.53432757 22.1465
-10.830167 19.605234 -0.52031481 22.1495
-11.008753 -15.239977 -0.016296573 23.018999
-10.995147 -15.063747 -0.046900027 23.018499
-11.076113 -14.692437 -0.032536279 23.01825
-10.975102 -11.551448 -0.15042554 23.01
-11.021775 -8.0147552 -0.315907 22.018
-11.184497 -7.0132604 0.0059348522 23.012751
-10.875335 52.172993 0.094599761 23.134001
-11.088629 38.820965 1.8827115 25.143
-11.073491 -26.982979 2.1085854 26.029499
-10.919089 -27.418554 3.4749677 28.031
-11.159425 -23.688423 5.0410028 31.02825
-10.98399 -22.370842 4.8043017 31.02775
-10.830404 -26.665133 5.5312505 31.029499
-10.690701 6.7833953 -0.60945326 21.160999
-10.62444 7.0747375 -0.61043346 21.1605
-10.577779 7.4190497 -0.60883051 21.06395
-10.613157 7.7463541 -0.58919889 21.583626
-10.581734 8.1804495 -0.59167981 21.581249
-10.641912 8.612052 -0.56997126 22.162001
-10.621418 8.9580526 -0.57262444 22.161501
-10.513234 9.2754202 -0.57350403 22.160999
-10.63986 13.773599 -0.51565582 22.15
-10.591496 14.64996 -0.50077856 22.150499
-10.456275 15.010672 -0.50577182 22.15
-10.753351 17.404907 -0.49428049 22.1495
-10.573753 17.798714 -0.49987856 22.149
-10.545496 18.865324 -0.51065904 22.146873
-10.653101 19.885294 -0.540075 22.14575
-10.504169 -12.547466 -0.15903316 23.008499
-10.496062 -12.032279 -0.15259574 23.011
-10.700301 -11.770103 -0.15145057 23.0105
-10.512574 -9.8067884 -0.10978275 23.01075
-10.559703 -9.449872 -0.12130977 23.010899
-10.625612 -9.0520296 -0.12778813 23.011749
-10.768391 -8.1186304 -0.31261471 22.018499
-10.468248 -9.82656 0.010591744 23.015751
-10.517763 -9.3919392 0.015369798 23.015501
-10.531106 -9.1111174 0.010753821 23.014751
-10.756349 38.765419 1.9572667 25.136499
-10.400515 -27.735542 2.0883918 26.0315
-10.557759 -27.533337 2.0798671 26
-10.646238 -27.482399 2.7703156 27
-10.441496 -27.846375 3.5001566 28.0315
-10.648393 -27.396177 3.4905288 28.014999
-10.493706 -25.666777 3.986938 29.029499
-10.424059 -27.803793 4.1981158 29.0315
-10.695905 -27.43129 4.2289047 29.030001
-10.759591 -27.036842 5.5144486 31.031
-10.223652 7.7766757 -0.61334246 21.158834
-10.129555 8.1309538 -0.61644554 21.105333
-10.14258 8.5476961 -0.6188345 21
-10.184093 15.487574 -0.5115087 22.14925
-10.371101 18.171244 -0.50497139 22.1485
-10.144359 18.518185 -0.50946879 22.148001
-10.228554 19.273207 -0.51616585 22.14625
-10.045021 19.665407 -0.51822686 22.146
-10.331821 20.351082 -0.5302276 22.1485
-10.220279 20.538048 -0.54658461 22.144875
-10.043345 21.026991 -0.56383181 22.141001
-10.022014 -20.551657 -0.010858109 23.028
-10.213359 -18.520714 -0.010257298 23.026501
-10.396424 -18.099882 -0.0098224776 23.025999
-10.32198 -17.299397 -0.0099099437 23.025499
-10.026586 -16.909458 -0.017607644 23.0215
-10.31309 -16.674997 -0.016953748 23.021
-10.039199 -12.801679 -0.15154423 23.008499
-10.178853 -12.552786 -0.15209644 23.009998
-10.027103 -9.3509178 -0.31780699 22.0215
-10.218214 -8.9217587 -0.30964634 22.01825
-10.325415 -7.5131421 -0.32870877 22.014
-10.058347 38.675663 -0.0064578927 23
-10.294277 41.753525 -0.061541453 23.136002
-10.309899 41.733337 0.054068848 23.1355
-10.057249 38.678635 0.92698753 24
-10.314015 41.748329 1.0192127 24.13475
-10.371161 38.865768 1.8758005 25.1425
-10.204779 41.779358 1.9723074 25.136833
-10.031738 -27.979773 2.0947478 26.032
-10.31339 41.739201 2.0911093 25.1355
-10.369504 -26.081661 3.9699569 29.031
-10.050732 -24.654678 4.4697165 30.029499
-10.011284 -25.791973 5.3156838 31.030001
-9.7079754 2.1368523 -0.61216003 21.17
-9.6530142 2.4515584 -0.61262548 21.16925
-9.6122026 2.8819015 -0.61531335 21.168251
-9.6135263 3.212338 -0.61920482 21.1675
-9.8729868 5.0837507 -0.53109831 22.167
-9.91471 5.3306212 -0.49355945 22.166313
-9.7463598 7.0135579 -0.61256319 21
-9.6328001 7.2307138 -0.61387825 21
-9.9101887 8.2869053 -0.61851794 21.157499
-9.8694525 8.6267967 -0.6195426 21.078499
-9.8023243 9.0181112 -0.62145251 21
-9.647336 9.265954 -0.62409747 21
-9.9062662 15.966507 -0.51749778 22.1485
-9.742877 16.334654 -0.52286655 22.148001
-9.924449 18.88142 -0.51450688 22.147499
-9.7920074 19.401003 -0.52168941 22.14625
-9.6534605 19.920172 -0.52984434 22.145
-9.800087 20.041559 -0.52382094 22.1455
-9.7896366 21.065741 -0.53967655 22.147499
-9.8434811 21.499115 -0.56822735 22.140499
-9.6698895 22.016827 -0.57368213 22.139999
-9.8687096 -19.456837 -0.01108914 23.0275
-9.9300575 -18.781837 -0.010894322 23.027
-9.8086462 -12.781374 -0.15593722 23.012501
-9.8432922 5.0771394 -0.1410906 23.167
-9.9346523 38.703995 -0.0064946222 23.06975
-9.9151154 38.713184 1.0629811 24.57375
-9.958128 38.681042 1.8842461 25.090166
-9.9853907 -26.665274 2.6752195 27.0315
-9.7924719 -25.259979 4.5443788 30.030001
-9.8760414 -24.881325 4.4252377 30.031
-9.2368269 -4.4350009 -0.48893669 21.009501
-9.4359522 -4.3502412 -0.49335167 21.009832
-9.592577 3.4308391 -0.6210897 21.167
-9.5899305 3.7685685 -0.62560695 21.16625
-9.5278664 7.399168 -0.61441064 21
-9.3149681 7.8319831 -0.61850947 21
-9.5977831 8.561161 -0.62098527 21.1565
-9.4200144 8.9662724 -0.62490577 21.155668
-9.3649521 9.3757896 -0.62411594 21.077499
-9.2728786 9.7176104 -0.62672359 21
-9.4346561 10.211335 -0.57337034 22.16325
-9.5647736 16.676218 -0.52769631 22.147499
-9.3657675 17.010666 -0.53230596 22.146999
-9.4831018 19.673567 -0.52634454 22.1465
-9.3906755 20.235886 -0.53209782 22.145166
-9.3121271 20.854744 -0.53678435 22.144501
-9.5227976 21.474514 -0.5457713 22.146999
-9.2817993 21.947102 -0.55363083 22.1465
-9.4278154 22.477657 -0.57787985 22.1395
-9.2095146 22.965851 -0.58286792 22.139
-9.5461483 -54.331253 -0.037047401 23.032
-9.5653419 -20.561113 -0.011847124 23.0285
-9.5700283 -13.017179 -0.15700397 23.013
-9.3829641 -9.7132826 -0.31303293 22.023001
-9.5763769 -9.5734472 -0.31386688 22.022499
-9.2977171 -4.4757447 -0.25319681 22.009001
-9.5846186 5.0612946 -0.12262315 23.160999
-9.4619761 57.171196 -0.0049220845 23.137501
-9.2950211 -21.518723 0.034109112 23
-9.5272951 5.0260558 0.00087336736 23.167999
-9.323144 -21.644081 0.58951271 24
-9.2805138 -21.655197 1.1490242 25
-9.2394753 -21.654167 1.7045313 26
-9.2441759 -46.727551 2.2207816 25.035999
-9.2419348 -21.663153 2.2637804 27
-9.4550257 -26.425432 2.6359372 27.032
-9.2362432 -21.654335 2.8278425 28
-9.2417345 -21.669937 3.394165 29
-9.4501963 -25.289076 4.4610262 30.0315
-9.4614716 -25.320526 5.1211305 31.0315
-9.4179363 -26.335167 5.2971926 31.032
-9.0493393 -4.3868766 -0.47719756 21.01075
-9.144496 8.158556 -0.62160999 21.052668
-8.9743881 8.4399385 -0.62377757 21.157499
-9.0493526 9.3165474 -0.62787265 21.154499
-8.9735708 9.8129997 -0.62633395 21.076874
-8.9533596 10.101203 -0.62983465 21.051834
-9.1778355 10.659011 -0.57489586 22.1625
-8.9707146 10.942741 -0.57543594 22.162001
-9.0349808 17.483032 -0.53859466 22.14625
-9.0860491 20.581673 -0.54096103 22.144749
-9.0187731 21.173689 -0.54122895 22.143999
-8.9821386 22.328077 -0.5591687 22.146
-9.067152 23.602716 -0.59084439 22.1385
-8.9720011 -9.9575968 -0.31066984 22.024
-9.0030594 -4.4860706 -0.24731079 22.010834
-9.0356436 5.1215072 -0.12690091 23.168499
-9.148448 -23.279333 0.0066748783 23.031
-9.0410423 -21.608551 0.0065423669 23
-9.1706171 -21.576723 0.0067233895 23
-9.1274786 -21.679848 0.55557513 24
-9.1097651 -21.734001 1.1111907 25
-9.0971842 -21.748192 1.6634458 26
-9.1019239 -21.760811 2.2184274 27
-9.0976887 -21.752842 2.7780187 28
-9.0588751 -25.358328 3.1681786 28.032
-9.0392284 -21.791298 3.3389487 29
-9.0462275 -21.676643 3.8853853 30
-9.1626539 -21.501152 3.9311955 30
-9.1741323 -25.674297 4.5038366 30.032
-9.1276531 -21.707441 4.5015206 31
-8.656848 -4.4594035 -0.46396199 21.011
-8.5586824 -4.2512488 -0.5089196 21.009251
-8.5227156 -3.9355102 -0.50160819 21.008499
-8.6854744 2.205344 -0.66880178 20
-8.4736595 5.5736361 -0.51812345 22.1695
-8.7183533 8.6717482 -0.62221402 21.15675
-8.7591515 9.523632 -0.62615722 21.153749
-8.4940557 10.076014 -0.63229543 21.152626
-8.7019129 10.412067 -0.63315016 21.155001
-8.6864462 11.416073 -0.52280027 22.153749
-8.73458 14.736176 -0.56173372 22.1465
-8.5826178 15.070683 -0.56410307 22.146
-8.6363916 17.860628 -0.54258186 22.1455
-8.7682705 20.877323 -0.54514235 22.145
-8.6341219 21.271414 -0.55248201 22.143875
-8.7731886 21.632179 -0.54921025 22.143499
-8.497323 22.045759 -0.55615777 22.143
-8.7597952 22.911396 -0.5699079 22.1455
-8.4906216 23.425501 -0.57892931 22.145
-8.7570257 23.983616 -0.59385449 22.138
-8.4708824 24.436209 -0.59831017 22.137501
-8.4413738 -10.409117 -0.3106266 22.025499
-8.6963415 -10.171213 -0.31018445 22.02475
-8.5000772 -8.9935703 -0.081469901 22.840834
-8.5956383 -4.4955449 -0.22771457 22.011168
-8.613328 5.1058559 -0.06806694 23.164
-8.686614 5.2141204 -0.23524807 22.164499
-8.5030737 -8.9778233 0.32770458 24.006001
-8.581728 -6.8547878 0.26819348 24
-8.5806303 -6.7117729 0.21473718 23.752251
-8.4465923 -8.9917316 0.5073694 24.505249
-8.4118471 -8.1616421 0.61653441 25.008625
-8.4436731 -7.9523225 0.62432826 25.004
-8.5259657 -7.3477821 0.65013158 25.210249
-8.5874519 -6.9921021 0.67252606 25.002701
-8.6073561 -6.7339215 0.64661771 25.084833
-8.4421597 -8.9646358 1.0362226 26.003901
-8.5237875 -6.8912539 0.94001329 25.751875
-8.5976658 -6.7729473 1.0048262 26.375
-8.4516544 -9.0117188 1.447421 27.002625
-8.5485096 -8.157382 1.4688655 27.00725
-8.5628014 -6.8668213 1.3174148 26.70075
-8.5932741 -6.782588 1.2009469 26
-8.6699152 -40.77216 1.9434741 25.0355
-8.4286509 -8.9923306 1.7973782 28.5
-8.5728235 -6.929678 1.7507235 27.885231
-8.5981035 -29.281998 2.2426178 26.028999
-8.4655495 -9.0155277 2.2585785 28.505249
-8.5360155 -7.4515638 2.1560948 28.009251
-8.5660343 -6.9808755 2.168009 28.50065
-8.5501137 -25.544531 2.5285254 27.032499
-8.6244001 -7.0308719 2.5121303 30
-8.4351645 -24.805397 3.0818753 28
-8.4001617 -7.1165996 3.0891533 30.011999
-8.6764278 -24.328022 3.650897 29.032
-8.2779875 41.910992 -0.88038146 22.1315
-8.188386 -7.8173199 -0.41323987 22.011499
-8.0957346 -5.8405776 -0.47349834 21.015499
-8.3406668 -4.5519857 -0.46804762 21.011833
-8.0181074 2.8740408 -0.69996601 21.16325
-8.1128378 3.3609865 -0.70517743 21.162251
-8.1946678 5.1153636 -0.67583656 20
-8.133667 5.3789973 -0.68226027 20
-8.0937376 5.8005328 -0.69670832 20
-8.3412666 8.7932167 -0.61365557 21.156
-8.2543049 9.0181408 -0.61801547 21.1555
-8.1109543 9.3562069 -0.62453681 21.154751
-8.1714716 10.149737 -0.62574691 21.152
-8.3360405 10.709597 -0.63325703 21.153999
-8.1501141 10.856675 -0.63345009 21.1535
-8.2279587 11.930785 -0.52536744 22.1525
-8.0577564 12.161145 -0.52729398 22.152
-8.3639812 15.333381 -0.56458122 22.1455
-8.1876068 15.652696 -0.56664485 22.145
-8.3095427 18.022032 -0.54299968 22.145
-8.2608643 21.091179 -0.58487326 22.1415
-8.0417681 21.546539 -0.5897212 22.141001
-8.3236485 21.830849 -0.56272417 22.14325
-8.0969601 22.376396 -0.57330275 22.14275
-8.2865715 22.634521 -0.56755328 22.1425
-8.0963163 23.018202 -0.55138171 23.1535
-8.1687832 23.81461 -0.58497858 22.144501
-8.1318283 24.792046 -0.60109508 22.136999
-8.3111696 -15.601676 -0.16854666 23.0135
-8.3379164 -9.0835381 -0.11684258 22.789928
-8.1729364 -8.6767664 -0.35397488 22.0145
-8.0345917 -6.2402444 -0.27292186 22.0145
-8.3638287 -4.5614581 -0.2236651 22.012625
-8.3025265 5.1826687 -0.22727141 22.164
-8.3444481 -9.0539408 0.20989686 23.779612
-8.255578 5.1533284 0.00010105156 23.164
-8.111412 38.774288 0.22271433 24
-8.0175419 38.843018 0.22255194 24
-8.2186623 41.945377 0.18022093 23.6385
-8.3418198 -8.9843435 0.57427555 24.862072
-8.3704424 -8.6278057 0.61062694 25.009998
-8.3276768 -46.409664 1.0844989 24.036501
-8.3313007 -9.0694103 1.0229889 26.125
-8.0072384 38.829361 1.178918 25
-8.190341 41.967167 0.9852742 24.136749
-8.3361683 -9.0587435 1.3903137 27.1
-8.1527166 41.963837 1.2644742 25.1455
-8.3219633 -9.0500431 1.7643688 28.1875
-8.2906466 -9.0180092 2.1800861 29.484783
-8.1288748 -6.8929458 2.5071795 29.200703
-8.0521088 -6.771594 2.5959702 30.007999
-8.3531494 -28.672979 2.9276023 27.028999
-8.2760153 -24.808538 3.0758367 28
-8.3503895 -8.1098471 3.0781314 30.01025
-8.345665 -7.9326363 3.1562476 30.51125
-8.0260162 -6.872632 2.8600695 30.501751
-8.0515919 -6.776226 2.964257 30.251999
-8.0753965 -6.7748652 3.4060111 31
-8.3403254 -24.996332 3.7233815 29
-8.3480787 -24.561354 3.6659484 29
-8.2759495 -24.559498 4.2800717 30.016251
-7.8573246 38.866199 -0.83451748 22
-7.9128962 -8.1480427 -0.40210485 22.0135
-7.9730811 -6.013701 -0.46524978 21.018499
-7.6728392 -0.055622946 -0.69472057 21
-7.7253904 0.22238392 -0.6947065 21
-7.8201599 0.78954202 -0.69489217 21
-7.8638072 1.1467628 -0.69492203 21
-7.8278971 1.3844819 -0.67726046 21.0555
-7.8418388 1.7999238 -0.68147212 21.082874
-7.9124074 2.2180209 -0.67015642 20.79125
-7.9173255 2.5617366 -0.66674018 21.041061
-7.8384418 2.9706264 -0.66778457 21.04125
-7.8660955 3.4571257 -0.6676001 21.082125
-7.8328056 3.8507602 -0.66793931 21.054417
-7.8495822 4.1688004 -0.67538363 21.081249
-7.8714509 5.1943545 -0.7001164 20
-7.737606 5.4782219 -0.6937058 20
-7.6236539 5.746839 -0.68844217 20
-7.7733045 6.1379185 -0.69305944 20
-7.6820579 8.4087009 -0.65866125 21.155001
-7.7194371 9.9449549 -0.63269007 21.15325
-7.803936 10.523482 -0.6294595 21.150875
-7.6784043 11.000766 -0.62600988 21.1525
-7.881464 12.467247 -0.53079659 22.151501
-7.6505818 12.858735 -0.53544348 22.150749
-7.9961109 15.955991 -0.56839198 22.144501
-7.8035102 16.268314 -0.57039976 22.143999
-7.7129326 16.706373 -0.57589942 22.143499
-7.8781915 22.111502 -0.59712797 22.140499
-7.7367601 22.677845 -0.58697742 22.1415
-7.9741359 23.014656 -0.57384998 22.142
-7.7414451 23.436621 -0.56861603 22.647251
-7.6002712 23.810513 -0.5600335 23.1525
-7.8139443 24.145716 -0.58968109 22.143999
-7.7609692 25.099049 -0.60309076 22.136499
-7.7486072 -11.742815 -0.022731157 23.0215
-7.6851196 -6.2484741 -0.13991465 22.514999
-7.8898768 38.874844 -0.031411931 23.092085
-7.8365626 38.880535 0.065018408 23
-7.8795915 38.865368 0.92171925 24.059216
-7.8238826 38.934193 1.8489118 25.096251
-7.8945541 -9.753809 2.3300688 30.0165
-7.7552586 -9.4329176 2.3391221 30.5205
-7.8226128 -9.0688076 2.3608768 29.678833
-7.8837519 -8.5969973 2.3369827 29.51
-7.8357553 38.908821 2.1291842 26
-7.8725362 41.946133 2.0643699 25.134001
-7.768374 -9.364686 2.4212523 30.0105
-7.9704952 -7.0402565 2.4861569 30.504875
-7.623199 -27.772779 3.3978937 28.033501
-7.8232498 -27.357817 3.4988005 28.028999
-7.997983 -6.8456597 3.3230073 31
-7.3956041 -6.4322343 -0.45659003 21.0205
-7.2762637 -5.7167621 -0.49288526 21.0145
-7.3352861 -4.4021215 -0.41214225 21.011999
-7.3934603 -4.2600203 -0.46987644 20.675165
-7.3541999 -3.8139739 -0.57897323 20
-7.3641281 -3.4833212 -0.58029306 20
-7.4762726 5.7919445 -0.69205189 20
-7.3853064 6.2388554 -0.69642901 20
-7.4507031 6.6201534 -0.69743556 20
-7.2419248 6.9026465 -0.70009643 20
-7.4628134 8.5211411 -0.65491015 21.154499
-7.383604 10.260639 -0.63422614 21.15225
-7.4530296 10.682767 -0.63230789 21.15
-7.5048299 10.862173 -0.62843913 21.15
-7.2244616 11.275754 -0.63732558 21.149
-7.2858958 11.695046 -0.64298791 21.150999
-7.4286251 13.26626 -0.54079437 22.15
-7.5857091 17.114916 -0.58058351 22.143
-7.4312124 17.496374 -0.58461988 22.1425
-7.2917209 17.908993 -0.58949769 22.142
-7.4305401 23.046156 -0.59736991 22.140251
-7.5113525 23.239382 -0.58673197 22.1425
-7.3368835 23.823347 -0.58795774 22.141001
-7.4657393 24.523279 -0.59563786 22.143499
-7.4256568 25.493301 -0.6068725 22.136
-7.2036953 26.123417 -0.6152823 22.1355
-7.3947778 -11.736509 -0.030939128 23.021875
-7.2947364 -10.203924 -0.36476597 22.018
-7.3470583 -4.3652601 -0.25093082 21.763624
-7.258616 41.115871 -0.028753901 23.1385
-7.2485771 41.108932 0.11267161 23.131001
-7.2209659 -35.938248 0.89774877 24.035
-7.4672713 39.012829 1.9088485 25.069752
-7.4727998 39.321835 1.7516199 25.1385
-7.5640187 39.77586 1.871485 25.1395
-7.5334878 40.14851 1.8315886 25.136499
-7.556704 40.705288 1.8476868 25.137249
-7.4865541 41.47781 1.8473393 25.138
-7.5480905 41.817432 1.9587812 25.139
-7.2021213 -7.4656916 2.3186665 30.004499
-7.2140894 -7.0451465 2.3639417 31.012501
-7.3256812 -6.7928705 2.3558404 29.501999
-7.5519018 -8.9262571 2.5563347 30.007
-7.2581544 -8.0074377 2.4295008 30.006001
-7.2799644 -7.6931152 2.403614 30.005501
-7.2877359 -6.8614464 2.5193377 30.253624
-7.3509841 -6.7647262 2.5160091 29.753124
-7.3312774 -6.7307887 2.9416189 30.401699
-7.3073773 -6.7420235 3.309665 31
-7.2173848 -26.492493 3.8974757 29.033501
-6.855063 39.826679 -0.84035826 22.131001
-6.9989629 -10.194004 -0.41063723 22.01775
-6.8252077 -7.3168716 -0.46608895 21.0235
-6.9504652 -7.1978221 -0.46608844 21.023001
-6.8749814 -6.6710234 -0.40979367 22
-7.0444765 -6.3421907 -0.45042515 21.018501
-6.8111691 -5.9287128 -0.51034272 22.009251
-6.9777422 -4.1573005 -0.58796251 20
-7.109293 -3.6964087 -0.59123611 20
-7.1565404 -3.3639789 -0.59395784 20
-6.8743386 0.33096713 -0.71731877 21
-6.9062457 0.71119928 -0.71711814 21
-6.8874669 1.3728945 -0.71482265 21
-6.9062042 1.8392235 -0.70967638 20
-6.91611 2.0042243 -0.71629608 21
-6.9385262 2.601438 -0.71873075 21
-6.9495759 3.0313191 -0.72098267 21
-6.9848375 3.3535805 -0.71417224 21.167917
-7.0074353 3.8382814 -0.72092974 21.165751
-6.9895244 4.326406 -0.72441077 21.164751
-6.9499936 4.6851659 -0.72636533 21.164
-6.96104 5.4241791 -0.69589567 20
-7.1040635 6.3806405 -0.70747298 20
-7.0726409 6.6641703 -0.70933491 20
-6.941709 6.9687514 -0.70776975 20
-6.9276185 7.3291984 -0.70576233 20
-7.1064296 9.1090212 -0.66235214 21.153
-6.9776268 9.4587307 -0.67007619 21.15225
-6.9882469 10.967461 -0.64062464 21.14975
-7.0049925 11.431173 -0.64443165 21.148376
-6.9848275 11.895157 -0.64374363 21.150249
-7.0284491 18.174162 -0.59054178 22.1415
-7.1569819 23.515179 -0.60479373 22.13975
-6.9187508 23.826437 -0.60272086 22.140499
-7.0882173 24.189962 -0.57902706 22.64625
-6.955884 24.717663 -0.56981868 23.151501
-7.0912795 24.825521 -0.5999226 22.143
-6.9920759 -11.727139 -0.036766261 23.021667
-7.1335621 -11.163802 -0.34054679 22.024
-7.0053482 -10.626418 -0.36805859 22.018999
-6.9062295 -6.6129522 -0.17894077 22.645357
-6.9631953 -4.3412013 -0.28296074 21.569168
-6.8168836 9.9085722 -0.0042578275 23.15
-6.9086447 41.003784 -0.087463595 23.136499
-6.817173 60.192364 -0.010367068 23.136
-6.8701015 -8.8447332 0.21368308 24
-6.8951616 -6.6212921 0.191148 23.858751
-6.8919401 9.9245787 0.023858933 23.6535
-6.9800582 41.095028 0.13616398 23.63925
-6.8130345 42.243214 0.11678175 23.130501
-6.8203006 -8.1919241 0.56713307 25.00675
-6.858202 -7.7996259 0.66712743 25.01125
-6.8817649 -7.420321 0.65540391 25.010349
-6.8928666 -7.0027018 0.63527822 25.003931
-6.8850818 -6.6463289 0.6079967 25.167377
-6.8311996 -43.639774 1.0422161 24.033501
-6.9065452 -6.6708894 1.0280787 26.308001
-6.8803568 -8.8565474 1.3307095 27
-6.8558006 -7.8925061 1.5769761 27.011999
-6.8663096 -6.8284097 1.4281353 27.001501
-6.8995843 -6.7181044 1.4467847 27.821428
-6.8615055 -39.245052 1.8518449 25.036501
-6.8617554 -37.421341 1.8255429 25.0355
-6.8366852 -7.6975665 1.7371472 28.0105
-6.811882 -7.5366669 1.9478164 30.0145
-6.8662434 -6.8539124 1.9028957 28.583334
-6.8834362 -6.7682123 1.858264 28.888889
-6.9524183 39.092777 1.8763845 25.103874
-7.010375 -9.7716503 2.3323727 29.764875
-7.0017056 -9.0121002 2.2016928 29.505501
-7.1385984 -8.2333813 2.3791103 30.5105
-7.1684828 -7.8719988 2.3434081 30.509874
-6.8437428 -6.9287672 2.2729378 29.438126
-6.9094434 -6.7866111 2.0587986 29
-7.1104178 42.013252 2.0574098 25.133499
-7.0472527 -8.9489584 2.4605689 30.343668
-7.110178 -8.6110344 2.4156137 30.511126
-7.0337558 -8.075264 2.4357073 29.0105
-6.9370384 -7.8469353 2.4523759 30.345083
-6.8648505 -7.3859334 2.4475918 29.0135
-6.9016423 -6.919704 2.5733984 30.117136
-6.8414011 -8.2541189 2.9022086 30.012665
-6.9490294 -6.9063416 2.9211264 30.700001
-6.9864044 -6.9300737 3.2509305 31
-6.6958084 -10.629231 -0.41170266 22.018749
-6.4509473 -7.8180356 -0.47214359 21.025249
-6.6356874 -7.4982519 -0.46641579 21.02425
-6.6670799 -7.0889416 -0.44643173 22.008249
-6.6190033 -6.601541 -0.46251661 21.680082
-6.6439629 -6.3496695 -0.51208371 22.01
-6.4397182 -4.8591542 -0.56370372 20
-6.4807816 -4.5247855 -0.56291062 20
-6.5823817 -4.3111243 -0.54400611 20.336
-6.549716 -3.3069696 -0.6058538 20
-6.6756392 1.8743261 -0.70568275 19.333334
-6.6351676 2.3733592 -0.70021409 20
-6.6105113 2.6597075 -0.70377702 20
-6.5780602 2.9046435 -0.70665598 20
-6.6408534 4.3070602 -0.73896396 19
-6.5022192 4.608572 -0.74417442 19
-6.5571904 5.0694523 -0.71016687 21.16675
-6.7396684 5.9815121 -0.70602143 20
-6.488945 6.3866663 -0.71024626 20
-6.6574597 7.0375009 -0.71641928 20
-6.6349521 7.3815441 -0.71377343 20
-6.647706 7.6767807 -0.71065879 20
-6.6866102 9.8760118 -0.57781887 21.383749
-6.6514735 10.090201 -0.56266183 21.268938
-6.785049 10.431841 -0.62423235 21.150999
-6.4510446 10.947455 -0.63510942 21.14975
-6.6534996 11.382575 -0.64093018 21.147751
-6.6438246 11.68989 -0.64012659 21.147499
-6.5603552 12.120711 -0.64319819 21.14925
-6.77212 18.446136 -0.59193343 22.141001
-6.6536732 18.92383 -0.59859312 22.140499
-6.6634283 19.623266 -0.61068553 22.139999
-6.4711428 20.050217 -0.61592937 22.1395
-6.4914331 24.239697 -0.61101466 22.139502
-6.6432114 24.563726 -0.60092497 22.139999
-6.6386056 25.104847 -0.57392859 23.150999
-6.7578273 25.324181 -0.60903794 22.1425
-6.7520137 26.313404 -0.61549318 22.135
-6.5599098 -51.857231 -0.060977921 23.033001
-6.7971339 -11.526379 -0.34362915 22.025
-6.6127687 -10.931642 -0.36850753 22.02
-6.606173 -9.0132551 -0.20463158 22.757124
-6.5853572 -4.4700837 -0.28817341 21.646284
-6.5803905 -4.2887297 -0.23179899 21.764751
-6.6646061 9.9715862 -0.19139278 22.405556
-6.6373477 10.070724 -0.14551118 22.59091
-6.5250711 39.860119 -0.24719746 23.136999
-6.7951179 41.07333 -0.011374778 23.136999
-6.6763945 -8.9308453 0.15679488 23.786856
-6.6799431 9.9738665 0.19997868 23.805555
-6.6275883 10.079097 0.24648285 23.944445
