# .PCD v0.7 - Point Cloud Data file format
VERSION 0.7
FIELDS x y z intensity
SIZE 4 4 4 4
TYPE F F F F
COUNT 1 1 1 1
WIDTH 1202
HEIGHT 1
VIEWPOINT 0 0 0 1 0 0 0
POINTS 1202
DATA ascii
20.03635 -55.809418 1.0300211 23
20.122561 -48.116684 0.95363688 23.069
20.350183 -2.8307059 0.81956381 27
20.211956 -2.6110106 0.96898365 29.443659
20.015291 -2.392859 1.0182909 28.6175
20.023663 -1.9176732 1.0962102 30.114
20.265989 -55.79073 1.8937228 24
20.111494 -55.84304 2.1789308 24
20.005352 -55.91349 2.46996 24.068001
20.300095 -55.784649 3.1929028 25
20.179571 -55.79969 3.335402 25
20.089352 -56.142349 3.9577477 25.069
20.009714 -55.929764 3.8345172 25.068001
20.055122 -55.773739 4.2270975 26
20.120478 -55.738907 4.5128484 26.151785
20.297155 -55.595127 4.4703732 26
20.773046 -16.945272 -1.2038909 17
20.494946 -16.483648 -1.2092719 20
20.75695 -16.22057 -1.2126361 19
20.604837 -15.794013 -1.2139286 17.5
20.555372 -15.41545 -1.2121738 17.888889
20.642511 -14.976011 -1.217168 15.5
20.606184 -14.546471 -1.2158843 15.111111
20.594822 -14.241597 -1.2249566 15.541667
20.634193 -13.800493 -1.2339928 14.575
20.61224 -13.378048 -1.2404428 14.413818
20.576532 -12.915826 -1.2378004 12.755555
20.607164 -12.517094 -1.2451921 11.124479
20.604921 -12.205832 -1.2498962 12.285714
20.634991 -11.777386 -1.2568681 11.696428
20.550837 -11.42335 -1.2522527 11.183333
20.538546 -10.961112 -1.2529922 14.009091
20.630419 -10.681979 -1.2613459 12.565742
20.564207 -10.250885 -1.2632257 14.583333
20.589777 -9.7469206 -1.274809 13.214286
20.606789 -9.3305817 -1.2819474 13.305556
20.565981 -8.9596605 -1.2816569 10.887654
20.62558 -8.5826359 -1.2855338 13.661111
20.597694 -8.2212381 -1.2842546 15.305555
20.614531 -7.8173494 -1.2900062 13.901516
20.553585 -7.3530564 -1.2895945 13.018518
20.601944 -7.0276093 -1.2932166 14.205129
20.614246 -6.5553923 -1.299029 13.787879
20.632324 -6.2179952 -1.3007859 14.714286
20.560654 -5.7711573 -1.302774 15.25
20.624367 -5.3814788 -1.308485 16.181818
20.550314 -5.0313625 -1.3135744 15.933333
20.567766 -4.5886145 -1.3127557 16.375
20.604298 -4.2185025 -1.3233795 17.25
20.596317 -3.8053203 -1.2899901 17.700001
20.472694 -25.268549 -0.80088413 21.069
20.618601 -24.196596 -0.80326086 21.060083
20.598694 -23.643341 -0.86888391 20.54225
20.629265 -23.208998 -0.84895998 21.076
20.654119 -23.030222 -0.894072 20.728167
20.600893 -22.646704 -0.93550771 20.627499
20.536358 -22.172655 -1.0002587 20
20.593433 -21.869291 -1.0420126 19.875
20.628696 -21.239252 -1.1053935 19.5
20.628531 -21.036831 -1.1074574 19.775625
20.485207 -20.657608 -1.1191444 19.5
20.477617 -20.371563 -1.1527836 19
20.621223 -19.92445 -1.1459889 18.5
20.673861 -19.287016 -1.1181723 21.075001
20.576654 -18.926689 -1.0163488 19.384501
20.61158 -18.633595 -1.1445181 18.6
20.455322 -18.335846 -1.1777587 19
20.645382 -17.797165 -1.1771251 17.799999
20.612623 -17.455404 -1.1856241 18
20.526718 -17.087902 -1.1763221 17
20.54323 -16.631165 -1.1801761 17
20.55632 -16.14315 -1.1881267 16.799999
20.456152 -15.8069 -1.1917478 16
20.457966 -15.278883 -1.1821306 17.5
20.659176 -14.984521 -1.1923301 19.666666
20.757584 -14.779797 -1.1880323 14
20.646578 -14.243084 -1.1957581 13
20.40106 -13.682756 -1.1996733 12
20.73559 -12.408798 -1.0928168 10.833333
20.754322 -12.377213 -1.1952657 9
20.592432 -3.7264593 -1.0258601 19.539217
20.744841 -2.9844611 -0.84011126 21.211349
20.629562 -2.6329656 -0.8898648 20.7185
20.648529 -2.3483 -0.89780074 20.465708
20.482426 -1.7297462 -0.9134782 20.383249
20.784864 -0.0070630712 -0.82994115 21.098499
20.561382 0.25456288 -0.91470271 20.730154
20.420536 -30.725637 -0.77925962 21.065001
20.641167 -30.089298 -0.77044553 21.06625
20.587906 -29.526228 -0.79585242 21.063499
20.580563 -28.858801 -0.7643708 21.061001
20.551229 -28.790791 -0.7506206 21.054501
20.443775 -25.963802 -0.75572866 21.069
20.562239 -25.446623 -0.76901966 21.068001
20.701059 -24.86853 -0.7816689 21.061249
20.449423 -24.696253 -0.78879744 21.076
20.594637 -24.144993 -0.79605365 21.0695
20.651428 -19.012894 -0.5729689 21
20.73954 -18.369137 -0.5609827 21
20.448912 -12.229947 -0.46596855 20.7675
20.429852 -3.2337315 -0.51662743 22.123501
20.612925 -2.9207487 -0.55115914 22.263554
20.480539 -2.6346028 -0.53978962 22.964966
20.583691 -2.365788 -0.63037473 22.816666
20.589169 0.26570833 -0.58613855 22.468773
20.719267 -19.043398 -0.16116902 22.689001
20.746185 -18.386818 -0.32728291 22
20.471375 -12.143548 -0.097806618 28.052896
20.590614 -3.2538934 -0.19941379 24.25
20.551315 -2.8715162 -0.17207195 24.281885
20.512995 -2.7000911 -0.19177788 24.672157
20.475988 -2.2700357 -0.19768408 23.9685
20.540665 0.350317 -0.25765508 23.8249
20.632113 0.40907362 -0.32168859 24.136999
20.792341 -18.438534 0.14030825 24
20.503422 -3.2618818 0.20411654 27.124599
20.558281 -2.8698709 0.1909548 26.18004
20.488041 -2.7296839 0.2084081 26.923326
20.481974 -2.2662556 0.2310162 26.662376
20.453556 -59.293358 0.6067223 24.035
20.455811 -3.2323191 0.47093368 29
20.60972 -2.9041727 0.58588785 27.989618
20.492094 -2.720571 0.62128222 28.986486
20.488199 -2.2804101 0.52733666 28.143076
20.401676 -1.9753274 0.48697326 29
20.487879 -59.203724 0.87299293 24.0485
20.729015 -2.9139097 0.80736357 30
20.453918 -2.6611614 0.90475261 29.328922
20.560331 -2.3499591 0.93138307 30.321749
20.46122 -55.625271 4.4714284 26
21.048016 -17.409325 -1.2092305 19
21.079229 -17.044802 -1.2156832 18.5
21.04863 -16.166222 -1.2156549 18
21.054497 -15.705119 -1.2175561 16
20.925528 -15.403135 -1.2158635 16.714285
21.045076 -15.021106 -1.221981 17.6
21.02034 -14.527956 -1.2235739 15.5
21.059765 -14.137757 -1.2351792 13.944445
20.974073 -13.7753 -1.2466908 14.805554
21.012211 -13.489549 -1.2482655 13.694445
21.038572 -13.030991 -1.2535338 12.521333
21.007208 -12.672508 -1.2542214 12.895889
20.918325 -12.139879 -1.2643189 12.333333
21.054049 -11.85455 -1.2662497 14
20.946833 -11.367651 -1.2669691 13.261905
21.047403 -11.012269 -1.2728739 7.9362197
20.970036 -10.52873 -1.277532 11.981481
21.072134 -10.160318 -1.2841437 14.75
21.037804 -9.8113623 -1.2850199 16.5
21.009354 -9.4601765 -1.2861053 10.642858
20.96587 -9.0626678 -1.2927053 12.109028
20.986345 -8.5964127 -1.2962495 13.125
20.947865 -8.1429529 -1.3003949 14.435897
21.014328 -7.7662272 -1.301037 13.538462
20.96677 -7.3998642 -1.303122 13.656667
20.973665 -7.011941 -1.3042513 14.642858
20.951839 -6.5919428 -1.3059629 14.55
20.979925 -6.1830959 -1.3127968 15.3
20.983511 -5.7123971 -1.3194674 15
20.977898 -5.4428983 -1.3180453 16.09091
21.063601 -5.060679 -1.3289648 17.25
21.014774 -4.6147294 -1.3285486 16.416666
21.029926 -4.1228881 -1.2899089 17.845238
20.893471 -3.9271145 -1.2670282 18.222221
21.053392 -24.713036 -0.80141324 21.07
20.924616 -24.184248 -0.80419642 21.068501
21.099588 -23.787914 -0.87301117 20
21.076792 -23.26079 -0.92844772 20
21.01895 -22.979799 -0.920937 20
20.96566 -22.550261 -0.98557609 20.433399
20.914219 -22.185814 -1.026911 20.4091
20.975668 -21.89535 -1.0679734 19.799999
20.987602 -21.28496 -1.1070461 19.25
21.004465 -21.02342 -1.1391442 19.333334
20.833195 -20.721884 -1.1297013 20
21.015347 -20.085949 -1.1578878 18.333334
21.191935 -19.277842 -1.1691916 18
20.990677 -19.034428 -1.161563 18.679417
20.932758 -18.607159 -1.0848812 19
21.046465 -18.109869 -1.1830839 18
20.943254 -17.851536 -1.1885391 19
21.001272 -17.450813 -1.1852201 17.799999
20.980778 -16.567801 -1.1941601 16.333334
20.906635 -16.248522 -1.1874206 16
20.957106 -15.521609 -1.1904129 15
21.10824 -14.942305 -1.1989925 14
20.812443 -12.423059 -0.95668381 12.9
21.157425 -12.389368 -0.97994602 11.055556
21.132969 -4.0311508 -1.0547696 19.208427
20.963507 -3.8882039 -0.98727053 19.92404
21.158772 -3.2390082 -0.8758539 20
20.951227 -3.0493577 -0.85269696 20.712044
20.942387 -2.5937934 -0.89706624 20.055555
21.029732 -2.187001 -0.91992563 20
21.134741 -0.065155655 -0.93175638 20.666666
20.892015 0.082228936 -0.91188645 21.252899
21.137499 -34.254669 -0.64783579 22.069
21.138317 -31.121077 -0.73373443 21.066
20.927505 -30.108335 -0.77678865 21.067499
20.967848 -28.993145 -0.75413859 21.067001
20.899042 -28.644299 -0.78577214 21.065498
21.082619 -27.776546 -0.76305521 21.064501
21.025928 -27.461878 -0.76932847 21.067499
21.029797 -26.81529 -0.71224082 21.055
21.199772 -26.749468 -0.7575531 21.068001
20.953806 -25.029001 -0.76874977 21.065699
20.858688 -24.415962 -0.78939116 21.0765
21.052219 -24.286552 -0.76217169 22.052
20.926147 -18.387938 -0.60331583 20.833332
21.01582 -12.469998 -0.56678581 19.683376
21.064938 -12.315022 -0.57771921 19.220455
21.132366 -3.2197127 -0.67245221 21.747799
20.972927 -3.0690281 -0.57728177 22.121674
21.019474 -2.6498747 -0.61927855 21.650278
21.033312 -2.3386707 -0.67629915 21.73175
21.061676 -0.026694288 -0.53934199 22.169624
20.989119 0.075389571 -0.55718821 22.5676
20.920691 -18.342192 -0.21275406 22.5
21.109772 -12.634746 -0.19177271 26.588022
21.019543 -12.258505 -0.13984305 28.190685
21.06945 -3.2014019 -0.13178055 24
21.005892 -3.0515513 -0.17913021 24.259768
20.980259 -2.5479693 -0.18991928 24.291168
21.10725 -2.334959 -0.3063817 24.129623
21.106104 -0.018651593 -0.36514077 23.06875
21.022285 0.12520525 -0.29192236 23.699312
20.851366 -18.360929 0.020426581 23.5
21.09668 -12.532428 0.032042317 31
20.925488 -12.171031 0.0049729226 31.028999
21.153255 -3.2262435 0.14739463 25.128
20.976538 -3.0447793 0.22050336 26.326654
20.986809 -2.5479527 0.19789179 26.725901
21.189779 -52.079998 0.77364618 23.081499
21.004776 -3.0297418 0.60705912 28.492971
20.987654 -2.7042243 0.66382033 29.857143
21.054399 -59.135185 0.84035164 24.046499
20.989172 -3.0280643 0.95422387 28.985201
21.045048 -2.6655719 1.0107828 29.89736
21.5944 -18.848658 -1.2102551 18
21.548325 -18.028625 -1.2102399 19
21.450571 -17.747883 -1.2049127 19
21.457315 -17.352121 -1.2164725 18.5
21.398438 -16.872103 -1.2196811 17.666666
21.565735 -16.595934 -1.2099533 16
21.318684 -16.124361 -1.2414232 20
21.434261 -15.788908 -1.2261868 16.416666
21.388277 -14.969288 -1.2323002 16.76923
21.365324 -14.618599 -1.2315563 15.1
21.415411 -14.216882 -1.242191 14.9
21.389837 -13.794537 -1.2505537 12.75
21.440636 -13.339036 -1.2662579 13.072955
21.397556 -12.940904 -1.2649953 10.604166
21.422173 -12.548761 -1.2695469 13.928933
21.419254 -12.183415 -1.2765532 13.628572
21.424301 -11.725557 -1.2808132 12.466666
21.308798 -11.359079 -1.2802702 4.75
21.432934 -11.01869 -1.2864008 7.726191
21.401731 -10.609694 -1.290791 10.571428
21.395582 -10.233678 -1.2922794 13.296296
21.40682 -9.7940617 -1.2976013 11.787879
21.470993 -9.3966379 -1.3019514 12.019914
21.423386 -8.9546633 -1.3008962 14.15625
21.439516 -8.5854149 -1.2992889 13.40625
21.33717 -8.2524137 -1.3041126 12.425
21.446106 -7.753521 -1.3144976 13.90196
21.408783 -7.3826709 -1.3153598 13.097222
21.412781 -6.9859524 -1.3143762 14.092593
21.395538 -6.6157913 -1.3166288 15.384615
21.362379 -6.1658802 -1.3195651 14.666666
21.422533 -5.8015313 -1.3262894 16
21.342558 -5.3334799 -1.3314077 16.857143
21.418728 -5.0204062 -1.335067 16.25
21.455067 -4.7313805 -1.3442328 17
21.447399 -4.2371249 -1.2920356 17.714285
21.499083 -24.807222 -0.81326801 21.070499
21.517565 -24.413111 -0.82095206 21.068001
21.281389 -24.216751 -0.81258112 21.065416
21.506054 -23.923647 -0.87832457 20
21.422672 -23.318953 -0.90725869 20.4321
21.341122 -22.978971 -0.94874215 20.367167
21.44297 -22.59708 -1.0211803 20.363167
21.386694 -22.136408 -1.0673547 19.875
21.397999 -21.894005 -1.0863587 20
21.371864 -21.403833 -1.1282196 19.4
21.373137 -21.015364 -1.1434531 20.0515
21.360249 -20.564543 -1.1563636 20.0345
21.395849 -20.256403 -1.1659396 18.5
21.412558 -19.355677 -1.1625276 18.768875
21.242439 -18.899809 -1.1908089 18
21.307108 -18.602839 -1.1908277 19
21.366137 -18.185019 -1.1931231 18
21.516212 -17.718685 -1.1885444 17
21.356009 -17.531288 -1.1854999 17
21.258297 -16.55212 -1.1934991 16.333334
21.266546 -15.642015 -1.1992797 15
21.305313 -12.44206 -1.0277306 10.391666
21.226742 -12.367722 -0.99606448 10.85
21.267881 -10.368446 -0.91908151 0
21.392015 -4.1383519 -1.0048985 19.577225
21.475094 -3.8329091 -0.87685847 21.625126
21.473574 -3.3663754 -0.8563332 20.67433
21.258385 -3.1802697 -0.82600528 21.112249
21.324335 -2.3072941 -0.93186158 20
21.343868 -0.1670983 -0.94780272 20.933445
21.540051 -31.17761 -0.74363345 21.062
21.490797 -30.519365 -0.72750485 21.070999
21.441055 -29.108236 -0.70810127 21.071501
21.321093 -28.552357 -0.73202568 21.402334
21.490658 -28.059111 -0.73901778 21.066999
21.571138 -27.595406 -0.74084926 21.069
21.339396 -27.003296 -0.72230995 21.558374
21.490332 -26.625542 -0.71841282 21.059
21.453136 -26.321814 -0.75280774 21.068501
21.399012 -24.918758 -0.77058351 21.065689
21.438242 -24.481504 -0.79928845 21.077
21.424704 -12.835361 -0.44258606 22.01775
21.413294 -12.648136 -0.5311169 20.174999
21.335451 -12.317968 -0.58088875 19.243822
21.456263 -3.3520482 -0.62864298 22.111572
21.251574 -3.1328511 -0.56887978 22.627584
21.24667 -2.7249265 -0.40994906 24.153999
21.473999 -0.20180371 -0.58267677 22.564415
21.50914 -49.731026 -0.10274665 22.070499
21.438028 -12.835245 -0.38930747 23.017876
21.373638 -12.633746 -0.23332506 26.102379
21.370213 -12.284394 -0.16045782 28.233868
21.520918 -3.3592143 -0.12581708 24.748999
21.310123 -3.0150037 -0.160652 24.582546
21.258636 -2.7512488 -0.20901307 25.313997
21.439243 -0.19847347 -0.37115669 23.382626
21.372023 -12.618625 0.020550802 31
21.438066 -3.3095753 0.18173733 26.555206
21.255428 -3.1675613 0.21590847 25.533375
21.510708 -3.3255956 0.67596895 29.59355
21.301239 -3.0593069 0.639094 29.192284
21.318939 -2.7344415 0.59070814 29.64975
21.451733 -3.2968748 0.94401288 29.343992
21.252769 -3.1492057 0.94733733 28.803999
21.95015 -19.316761 -1.2046202 18
21.75754 -18.822744 -1.2128946 18
21.854841 -18.56633 -1.2045244 18.333334
21.815777 -18.277578 -1.2066623 18.5
21.892225 -17.788465 -1.2099878 17.799999
21.776423 -17.329918 -1.2172186 18
21.768923 -16.971039 -1.2238516 17.333334
21.823818 -16.682009 -1.2205616 17.200001
21.829657 -16.173285 -1.2329936 15
21.828539 -15.825896 -1.2380315 17
21.787437 -15.379344 -1.2395214 14.714286
21.78042 -14.91432 -1.2451079 15.6
21.80055 -14.607686 -1.2516037 16.238094
21.827599 -14.187812 -1.254696 14.5
21.783037 -13.86369 -1.2645981 14.685185
21.875494 -13.436615 -1.2689466 10.189583
21.775429 -13.00135 -1.2785875 13.359463
21.872248 -12.579689 -1.2830294 12.533334
21.805199 -12.183407 -1.2882352 10.722222
21.80724 -11.838728 -1.2884984 13.708333
21.743462 -11.360061 -1.2903908 11.866666
21.774757 -10.947164 -1.297431 15.2114
21.786734 -10.599175 -1.3046453 10.619048
21.869135 -10.164192 -1.3083572 9.8000002
21.80327 -9.7995663 -1.3066019 10.598215
21.769798 -9.4449816 -1.3038397 12.2
21.746397 -9.0073729 -1.3095777 13.16111
21.775656 -8.6423683 -1.313797 14.243334
21.791307 -8.1589632 -1.3152028 13.673077
21.81077 -7.8112817 -1.3208876 12.361667
21.838104 -7.4021254 -1.3274846 14.354167
21.763208 -7.0013032 -1.3252819 15.111111
21.751503 -6.555274 -1.3292887 15.555556
21.808767 -6.2992387 -1.3347139 15.1
21.811022 -5.785542 -1.3431537 15.833333
21.893253 -5.4121556 -1.3543782 17
21.836197 -5.077888 -1.3469336 16.799999
21.84803 -4.526413 -1.3244176 17.666666
21.698917 -4.3703542 -1.2929394 17.666666
21.924086 -24.826862 -0.82343125 21.070999
21.832186 -24.457655 -0.82826966 21.068501
21.779617 -24.20956 -0.84259939 20.709999
21.967041 -23.638855 -0.88229913 21.077
21.89921 -23.438097 -0.9340322 20.629002
21.809662 -22.997795 -0.98865294 20.726831
21.990355 -22.539349 -1.0746428 20
21.805433 -22.211149 -1.0837413 19.799999
21.83276 -21.786667 -1.1106501 19.333334
21.782324 -21.458172 -1.1500016 19.333334
21.777222 -20.526106 -1.1784593 19
21.852142 -20.360601 -1.1771436 19
21.935213 -19.681108 -1.1946211 18
21.657043 -19.037329 -1.1763189 20.051001
21.626968 -18.53731 -1.196292 19
21.753174 -18.14566 -1.1945752 18
21.888311 -4.4600334 -1.0760593 19.391661
21.753426 -4.3018141 -1.006639 19.729029
21.830307 -3.7234087 -0.92441607 20
21.784914 -3.4388607 -0.88232338 21.057407
21.722916 -3.0770369 -0.84658122 22.151751
21.835707 -0.45873979 -0.99619681 20.716084
21.678791 -0.34833103 -0.91931909 21.2822
21.782978 -31.485886 -0.68679971 21.053499
21.955788 -29.048735 -0.65050954 22.099501
21.705738 -28.57943 -0.70417833 21.067249
21.943724 -27.984018 -0.70389616 21.0725
21.803865 -26.890417 -0.72676736 21.06875
21.819571 -26.695797 -0.70177299 21.719666
21.799532 -26.191635 -0.75551194 21.069
21.760118 -24.968796 -0.7770465 21.06625
21.894554 -24.559996 -0.77116561 22.0525
21.908451 -3.6115413 -0.49047649 22.110001
21.752535 -3.4731576 -0.57696033 22.280594
21.704727 -3.1581562 -0.5537402 22.119099
21.897518 -0.43482712 -0.50267953 23.158625
21.799351 -0.36174655 -0.52478015 23.053101
21.940355 -3.6067173 -0.23324689 24.036001
21.760355 -3.4582512 -0.19922212 24.188637
21.754728 -3.1018288 -0.24464625 23.66197
21.919828 -0.45059159 -0.31000289 23.954636
21.763372 -0.32213619 -0.28393662 24.474249
21.780016 -3.4480455 0.22248952 26.673815
21.781437 -3.1110754 0.28769046 27.129
21.783024 -3.4494011 0.59546489 28.557089
21.779902 -3.0965881 0.57572544 28.288176
21.753061 -3.4403563 0.93016797 29.639954
21.912304 -3.0293403 0.94557583 31.152
22.192217 -21.461018 -1.2052573 20
22.249596 -20.526224 -1.2106383 19
22.217573 -19.787981 -1.2026364 18
22.352287 -19.455111 -1.2148273 18
22.184893 -18.867405 -1.2190545 18.692499
22.145262 -18.577198 -1.213093 18.333334
22.246244 -18.16519 -1.2190094 18
22.240324 -17.856014 -1.2222893 17.799999
22.317215 -17.40962 -1.2311522 17.666666
22.185217 -16.950233 -1.2361673 18.200001
22.184874 -16.695726 -1.2265465 16
22.206995 -16.187992 -1.2496531 16.666666
22.242437 -15.782726 -1.2539914 15.8
22.183681 -15.453333 -1.2544537 15.5
22.235754 -15.034508 -1.2552534 13.5
22.168373 -14.589876 -1.2613732 15.541667
22.238317 -14.194762 -1.2724806 15.324243
22.215872 -13.761946 -1.27412 13.40926
22.169971 -13.396968 -1.28627 12.017042
22.197805 -12.983173 -1.2907481 11.555554
22.253016 -12.594913 -1.3044213 15.416667
22.138529 -12.245961 -1.294425 11.885333
22.192274 -11.798913 -1.3001379 12.32
22.15349 -11.441978 -1.3059465 9
22.235649 -11.064161 -1.3131306 11.277778
22.261345 -10.637501 -1.3185322 12.625
22.221472 -10.27267 -1.3150623 14
22.178965 -9.7895679 -1.3163295 10.500001
22.16502 -9.3159313 -1.3162203 14.277779
22.124964 -8.9607401 -1.3190279 13.365079
22.197849 -8.5762825 -1.3235327 13.259259
22.195885 -8.225625 -1.3262068 13.166667
22.180962 -7.8210516 -1.3318263 13.703125
22.204081 -7.3913388 -1.3338842 14.875
22.217653 -7.0006676 -1.342766 15.425
22.185394 -6.5711536 -1.3423734 15.545455
22.226406 -6.2393217 -1.3495045 16.047619
22.141731 -5.7672043 -1.3517073 16.299999
22.245756 -5.4164352 -1.3544149 17.4
22.212872 -4.9595585 -1.3569795 17.5
22.111258 -4.6445093 -1.3185037 17.666666
22.099655 -24.932142 -0.80091792 21.070499
22.204498 -24.543468 -0.82867676 21.069
22.154528 -24.323265 -0.85074127 20.710417
22.276676 -23.666876 -0.95509911 20
22.26705 -23.361671 -0.9781124 20.3675
22.272469 -23.012106 -1.0490967 21.084499
22.046463 -22.528675 -1.0685904 19.666666
22.153246 -22.238331 -1.1132296 20
22.153387 -21.843061 -1.1257385 19
22.229576 -21.504194 -1.1647491 19
22.158257 -20.575193 -1.1815901 20.052124
22.207476 -20.398256 -1.1872587 19
22.184723 -19.000534 -1.1568999 21.0765
22.171234 -4.5886807 -1.061329 19.079453
22.244669 -4.1768274 -0.90041947 21.10675
22.23646 -3.7622938 -0.87862188 20.927639
22.313774 -3.4888511 -0.88734925 20.548901
22.217014 -3.1070032 -0.93122011 20
22.204605 -0.61049205 -0.92202872 21.046375
22.1161 -28.898672 -0.66056734 21.567249
22.356916 -28.680771 -0.71159267 21.063499
22.208715 -28.374821 -0.65732473 22.1
22.357119 -27.494923 -0.66032147 22.1005
22.072439 -27.00038 -0.6988858 21.0655
22.115343 -26.681364 -0.73578 21.068251
22.160465 -26.087593 -0.75923938 21.0695
22.130089 -25.031103 -0.77794445 21.065584
22.398273 -4.048861 -0.56818223 22
22.244129 -3.7564361 -0.58303207 22.175827
22.321726 -3.5131609 -0.63151675 21.73978
22.211407 -0.61498863 -0.52832061 23.158058
22.243065 -3.739188 -0.17035507 24.361061
22.293772 -3.4668028 -0.20984577 24.286156
22.04211 -3.113147 -0.087287806 26.144249
22.195114 -0.58159053 -0.25068337 24.541214
22.37044 -4.00457 0.068096921 24
22.258074 -3.7447746 0.21439113 26.329723
22.345322 -3.4969192 0.18193747 25.930511
22.099018 -3.1134853 0.29921773 28.146
22.277267 -3.7443633 0.60931957 28.696354
22.26897 -3.489485 0.65149057 28.746592
22.008333 -3.1067376 0.73184299 30
22.29208 -3.7329941 0.93881464 29.177017
22.319643 -3.5385172 0.96476901 28.638889
22.503662 -21.344116 -1.2130817 20
22.696102 -20.486807 -1.2235944 19
22.636337 -19.864531 -1.2131087 18
22.673347 -19.534166 -1.2216208 18
22.61145 -18.98033 -1.2336183 18.269501
22.603645 -18.636734 -1.2337383 18.5
22.64064 -18.254234 -1.226614 18.25
22.696306 -17.891226 -1.2381942 17.333334
22.793215 -17.238241 -1.2578135 18
22.627583 -16.949818 -1.2391534 17
22.5783 -16.776043 -1.2492002 16.857143
22.587975 -16.138763 -1.260252 15.8
22.697552 -15.847106 -1.2738582 18
22.596325 -15.406838 -1.2653608 15.642858
22.668928 -14.987336 -1.2694476 13.361111
22.587925 -14.610043 -1.2669801 13.466667
22.584602 -14.289275 -1.2827272 14.287878
22.613413 -13.833746 -1.2871917 15.410256
22.586481 -13.452622 -1.294758 13.347015
22.598536 -12.951969 -1.3017957 12.871428
22.684669 -12.609564 -1.3095757 11.700001
22.623383 -12.202743 -1.3153158 13.944083
22.572281 -11.862341 -1.3106521 11.257143
22.570341 -11.383615 -1.3156379 12.008334
22.602177 -10.957954 -1.3226894 12.111501
22.634693 -10.588735 -1.3309075 10.875
22.651306 -10.139041 -1.3315839 10.2
22.545618 -9.7758007 -1.3241129 12.349999
22.605087 -9.3581915 -1.3281959 12.25
22.577681 -9.0215721 -1.3263335 12.888888
22.519005 -8.4992962 -1.3352001 11.440476
22.603582 -8.1894951 -1.3375005 11.516666
22.56284 -7.7338195 -1.3381171 13.120371
22.571022 -7.335948 -1.3472104 15.027778
22.559036 -6.929565 -1.351451 15.242423
22.538273 -6.6182041 -1.3589674 16.875
22.577097 -6.2501435 -1.3558493 16.375
22.557611 -5.7962356 -1.3638057 16.875
22.589319 -5.3820262 -1.3673066 17.625
22.603083 -4.9609814 -1.3439974 17.285715
22.441467 -4.7788105 -1.3225559 18.4
22.523701 -25.043432 -0.82160538 21.070749
22.684696 -24.633745 -0.85029763 21.067583
22.497837 -24.385799 -0.8943221 20
22.615793 -23.849726 -0.94198012 20.432499
22.657104 -23.393303 -1.0380133 20
22.772535 -22.862 -1.1033872 19.5
22.470058 -22.64855 -1.0990964 19.833334
22.521828 -22.12936 -1.1371449 19.6
22.564707 -21.654728 -1.1777607 19
22.45784 -21.58816 -1.1664604 20
22.481644 -20.834972 -1.1990511 18
22.596594 -20.446854 -1.1924714 19.5
22.688499 -20.180006 -1.1994425 21.105
22.753229 -18.959934 -1.1739974 21.077
22.653187 -4.8746724 -1.0924894 19.225737
22.530619 -4.7124019 -1.0115497 19.490486
22.716215 -4.0986457 -0.91027242 20.461655
22.481979 -3.9314001 -0.88206524 20.985561
22.40773 -3.3290305 -0.94951552 20
22.617918 -2.9188259 -0.95731449 20
22.736111 -0.90554392 -0.94819319 21.5
22.476299 -0.7732861 -1.0315669 21
22.497499 -31.210234 -0.69373167 21.054501
22.551558 -28.246391 -0.65871418 21.568001
22.790695 -27.240416 -0.67465669 22.101
22.510017 -26.952347 -0.70441592 21.061874
22.546511 -26.694771 -0.72101086 21.404333
22.581158 -26.122786 -0.76686269 21.07
22.61001 -25.274708 -0.77792746 21.064499
22.700914 -4.0401845 -0.6843912 21.489052
22.512791 -3.903348 -0.60198534 22.233034
22.526829 -3.3771312 -0.5817405 22.634251
22.666489 -0.85290819 -0.50899541 23.717251
22.464792 -0.77246881 -0.63609451 22.592165
22.483919 -55.00425 -0.33197019 22.0935
22.702902 -4.0305223 -0.073203534 24.974857
22.528465 -3.8621149 -0.18443373 24.269781
22.422016 -3.3751884 -0.15124065 24.563
22.723618 -0.85432303 -0.25825778 25.150375
22.47525 -0.73014331 -0.28039786 24.030001
22.738234 -4.0323009 0.14629136 26.564066
22.543364 -3.9073896 0.20426181 26.201059
22.429441 -3.3777378 0.16975465 26.309624
22.784552 -4.02983 0.75193357 29.846062
22.531319 -3.849473 0.62057656 28.716087
22.575943 -3.4628353 0.56908649 29.574501
22.53293 -55.094616 0.92737412 23.0935
22.707777 -4.0199528 0.99437499 28.865
22.573389 -3.886296 0.92702639 28.631908
22.420767 -3.4383237 0.90420282 29.943899
22.854818 -21.273396 -1.2246261 20
22.806181 -21.007656 -1.2056155 18
23.006964 -20.450432 -1.218835 19
23.000248 -20.078514 -1.2186919 19.035166
23.146072 -19.650333 -1.2344317 18
23.018126 -19.481201 -1.2374258 17.5
22.949419 -18.730034 -1.2500231 18
22.996193 -18.172598 -1.2374233 17.625
23.039825 -17.836895 -1.248312 17.5
22.862158 -17.395622 -1.2520256 19
22.981567 -16.982763 -1.2529305 16.5
23.003738 -16.689789 -1.2703305 17.666666
22.976952 -16.211487 -1.2685933 14.75
22.991467 -15.664112 -1.2648199 14.25
23.033648 -15.460536 -1.2783719 16
23.026291 -15.04745 -1.2850108 16.328205
23.027256 -14.603644 -1.2840331 12.058333
22.949514 -14.146131 -1.2874717 13.462963
23.009922 -13.741182 -1.2999554 12.853333
22.978909 -13.37103 -1.3036096 17.4
23.029966 -13.112801 -1.3083586 15.2
22.984573 -12.629592 -1.3160917 14.4385
22.956808 -12.182029 -1.318688 13.427501
22.985998 -11.804655 -1.3283572 11.3125
23.04974 -11.385871 -1.3320404 12.875
22.988611 -10.935053 -1.3332865 10.4
22.998152 -10.579703 -1.3333329 12.865428
23.065016 -10.189764 -1.3379821 12.438775
22.989355 -9.801549 -1.3389004 10.853703
23.040354 -9.3840132 -1.3415729 12.791667
22.962584 -8.9524155 -1.3373548 14
22.988207 -8.6193752 -1.3459027 11.79394
23.012827 -8.2491961 -1.3505125 12.736667
22.986017 -7.8246851 -1.3505009 13.591667
23.018492 -7.3669677 -1.3561804 13.145833
22.987484 -6.9530311 -1.3586082 16.142857
23.095234 -6.6393976 -1.3695712 15.3
22.978846 -6.2357535 -1.3651823 16.111111
22.991421 -5.8319125 -1.3734344 16
22.991917 -5.4574585 -1.3718857 16.799999
22.894823 -5.0497069 -1.294775 18.145834
23.173168 -25.230694 -0.83092958 21.071251
23.011616 -24.971771 -0.847655 21.070799
22.884626 -24.670547 -0.88149291 20.535
22.928328 -23.947607 -0.96877497 20
23.012077 -23.46343 -1.0340747 20.727501
22.999142 -23.00602 -1.1023581 20.022625
22.900494 -22.55077 -1.1306131 20
22.920092 -22.2057 -1.1507583 19.5
22.983593 -21.733221 -1.1930133 19
23.037523 -21.54925 -1.1853632 20
22.967834 -20.440176 -1.1997174 22.0495
23.075317 -12.4968 -0.90255874 10.844048
23.009481 -5.04038 -1.0827851 19.354593
23.003511 -4.2091708 -0.88576156 20.824924
23.17872 -3.9726202 -0.84828806 21.647499
22.968691 -1.0396106 -0.93800032 21.732143
23.016018 -29.293928 -0.67649949 21.055
22.955082 -28.130495 -0.71090406 21.064501
23.01124 -26.991405 -0.70377415 21.323374
23.015543 -26.597557 -0.73339474 21.321501
23.006845 -26.133488 -0.77442646 21.070499
23.055525 -25.411572 -0.78664964 21.065125
23.07 -12.566341 -0.58350509 18.982771
22.973789 -12.352119 -0.54666752 20
22.999722 -4.1938686 -0.67027074 22.043314
23.189011 -3.9613955 -0.61184603 23.146873
23.019909 -1.0143276 -0.51773971 23.464287
23.105118 -12.595861 -0.23096503 27.869181
22.982763 -12.356611 -0.24239795 27.64172
22.854574 -4.0865812 -0.079632528 25.219812
22.923763 -3.8683457 -0.073922515 26.224339
23.044027 -1.0147476 -0.29186767 24.41386
22.860201 -4.082346 0.12205046 26.44825
22.948076 -3.8528798 0.14954603 27.502876
22.985113 -4.1211653 0.73525172 30.104805
23.049395 -3.8235128 0.68937802 30.225031
23.146957 -80.648911 1.1519433 24.047001
22.999918 -4.1293416 0.90990293 28.904772
22.834578 -3.9950306 0.89160305 27.107
23.073597 -80.646393 1.5234585 25.034
23.374233 -21.741358 -1.2129806 19
23.39727 -21.228403 -1.2318466 19
23.396658 -21.140543 -1.2330626 19
23.517719 -20.444195 -1.2270507 19
23.338253 -20.283913 -1.2260324 19
23.274439 -19.847935 -1.2311722 19.553001
23.424917 -19.45365 -1.2547458 17
23.337675 -18.659174 -1.2551626 19.026167
23.420406 -18.137991 -1.2509722 17.5
23.41647 -17.823727 -1.2566538 19
23.382494 -17.241859 -1.2652053 17.5
23.370655 -17.017534 -1.2700254 17.333334
23.367859 -16.531012 -1.2862959 16.833334
23.395634 -16.209688 -1.2854123 15
23.448505 -15.788404 -1.2815192 14
23.341942 -15.375096 -1.2874625 15.5
23.47456 -15.014481 -1.2927487 14.714286
23.373852 -14.735063 -1.2981964 14.666667
23.382303 -14.234844 -1.3023351 10.428572
23.343159 -13.87979 -1.3041234 12.96111
23.366098 -13.3929 -1.3217082 13.95058
23.402208 -12.96605 -1.3215808 15.773809
23.465237 -12.534027 -1.3248322 16.450417
23.406412 -12.11215 -1.3320179 12.925926
23.377186 -11.777848 -1.3378339 8.7619047
23.36764 -11.37828 -1.3460418 13.625
23.470249 -10.989976 -1.3492285 8.4142857
23.387627 -10.597082 -1.3501734 9.6875
23.408506 -10.282628 -1.3515751 10.035714
23.395929 -9.806613 -1.3530161 12.019387
23.358507 -9.3930807 -1.3513441 11.650794
23.409523 -8.9504166 -1.3534223 11.358334
23.376207 -8.5850821 -1.3532026 12.075
23.447338 -8.1322737 -1.3585527 13.208333
23.368221 -7.8098574 -1.3623717 13.435185
23.403128 -7.4243126 -1.3628519 15.128204
23.352282 -6.9715738 -1.3717179 15.636364
23.387501 -6.6218004 -1.3772811 15.714286
23.354828 -6.1989093 -1.3785281 16
23.38241 -5.8642149 -1.3792653 16.25
23.422903 -5.3347936 -1.3091695 18.008335
23.25326 -5.1446543 -1.2838991 18.666666
23.571377 -25.319967 -0.8535589 21.073999
23.511442 -24.936157 -0.87406212 21.06675
23.310051 -24.693964 -0.89941818 20.3575
23.373693 -24.115438 -0.9648695 20.269501
23.312843 -23.805655 -0.99049526 20.542751
23.417072 -23.528818 -1.0794411 20.540001
23.431028 -23.025862 -1.1235234 19.799999
23.410692 -22.623989 -1.1636639 20
23.364702 -22.349255 -1.169045 19.5
23.408464 -21.851913 -1.1934564 19
23.395012 -21.456367 -1.1951337 20
23.538977 -19.310238 -0.83003652 20
23.228868 -18.78326 -1.1851119 21.077499
23.445108 -5.3043203 -1.0835248 19.405647
23.259104 -5.1622858 -1.0674413 19
23.319353 -4.571537 -0.96014011 20.3645
23.2983 -4.0993776 -0.94403243 20.717583
23.252291 -3.9447172 -0.88703012 21.447281
23.472544 -3.5895469 -0.9617964 21.1465
23.450134 -1.3063272 -0.95436233 21.449499
23.275677 -1.1665953 -1.0562893 22
23.409159 -35.982727 -0.5949803 22.060499
23.541113 -33.058567 -0.57704604 22.061001
23.578833 -29.804258 -0.48413545 22.087999
23.494587 -28.938534 -0.67989367 21.05575
23.391098 -27.817814 -0.71257621 21.06525
23.469913 -27.255259 -0.71426648 21.059999
23.396408 -26.753433 -0.73091888 21.07225
23.492069 -26.276646 -0.78577203 21.070999
23.334011 -25.655548 -0.78938001 21.0585
23.503023 -19.409462 -0.70862228 20.5
23.548531 -18.831034 -0.57842863 21
23.333418 -12.768797 -0.43844634 22.5
23.238655 -4.0285192 -0.70749855 23.15275
23.261471 -3.922873 -0.65641719 22.593832
23.481127 -1.2689285 -0.54456675 23.453178
23.288275 -1.143173 -0.52097845 23.958799
23.561689 -29.998831 -0.25706133 22.083
23.562529 -19.529915 -0.33678645 22
23.573828 -18.962883 -0.26181644 22.333334
23.268394 -12.762743 -0.38269645 24
23.488337 -1.2534312 -0.31018269 24.5
23.342203 -1.1800365 -0.27714962 24.584
23.214563 -4.2110958 0.73979551 30.459335
23.285488 -3.8813329 0.69756842 30.105148
23.257492 -4.1707845 0.92102432 28.616436
23.203049 -80.54071 2.5004756 24.064501
23.937538 -22.576904 -1.2058533 20
23.830475 -21.829037 -1.2158915 19
23.981325 -21.387842 -1.2149283 20
23.799942 -20.440025 -1.2364517 19
23.757793 -20.14921 -1.2449367 18.6
23.840523 -19.786221 -1.2404598 18.666666
23.745224 -19.497101 -1.2531286 18.368834
23.914745 -19.170456 -1.2447224 21.107
23.773315 -18.48798 -1.2617314 18.693001
23.780169 -18.12459 -1.2640141 17
23.841686 -17.859152 -1.2614063 19
23.833971 -17.371569 -1.2783395 17.25
23.812757 -16.920443 -1.2878785 18
23.768606 -16.543354 -1.2921104 15.571428
23.827759 -16.230419 -1.2992651 16.6
23.820068 -15.733458 -1.2953835 14.25
23.699306 -15.355169 -1.2964926 13.866666
23.837749 -14.959525 -1.3013374 11.25
23.788837 -14.592319 -1.313427 15.464287
23.724075 -14.094171 -1.3179615 10.583333
23.824694 -13.769428 -1.3202026 13.15
23.838886 -13.364738 -1.3389964 13.807786
23.718138 -13.056077 -1.334691 10.896667
23.837828 -12.61624 -1.339942 13.875
23.809717 -12.203832 -1.34382 14.39987
23.809731 -11.767121 -1.3508271 10.466666
23.804777 -11.398701 -1.3525131 11.811111
23.843754 -11.013586 -1.3620414 10.375
23.797853 -10.607285 -1.3611939 9.4833336
23.822571 -10.149219 -1.3666734 12.3125
23.836908 -9.8254261 -1.3703572 12.625
23.832579 -9.4125004 -1.3679357 12.708333
23.797918 -8.9989462 -1.3670944 11.590278
23.7749 -8.603631 -1.3657604 11.96875
23.806015 -8.2307873 -1.3729064 12.520833
23.744207 -7.8072224 -1.3748153 13.729167
23.810146 -7.4493113 -1.3757629 14.055555
23.794392 -6.8995833 -1.3793335 14.5
23.832788 -6.6666961 -1.3909585 16.125
23.791492 -6.1619372 -1.3904139 15.8
23.856155 -5.7075644 -1.3423632 17.620371
23.786718 -5.5053053 -1.2936352 18.243055
23.770031 -25.623201 -0.80759352 21.073
23.800039 -25.290409 -0.87242907 21.072001
23.794874 -24.960733 -0.90700716 20.534
23.788639 -24.189922 -0.9921087 20.217199
23.726809 -23.742203 -1.0596815 20.367834
23.747416 -23.313734 -1.1285205 20.0455
23.80827 -23.0732 -1.1385291 20
23.775393 -22.604334 -1.1803136 19.6
23.867136 -19.581367 -1.1046383 19
23.777143 -18.615995 -0.94222134 20.359333
23.837715 -5.46345 -1.059635 19.596725
23.793615 -5.019547 -0.95625621 21.11175
23.82243 -4.4921732 -0.97566593 20.55175
23.842506 -4.2008905 -0.97780341 20
23.779005 -3.8051183 -0.97867662 20.45775
23.878426 -3.5717793 -0.97880393 21.144375
23.782658 -1.4940939 -0.9602049 21.812901
23.827721 -32.107944 -0.57481492 22.061501
23.766933 -29.750473 -0.48840639 22.042572
23.754038 -27.786648 -0.67076725 21.5695
23.899876 -27.475534 -0.71643233 21.722334
23.868565 -26.979027 -0.72339278 21.588501
23.805523 -26.725098 -0.75418383 21.405167
23.72546 -25.939558 -0.79903436 21.05925
23.78754 -18.678881 -0.62081653 20.857168
23.853451 -11.445883 -0.49845695 22.174999
23.969362 -1.6308855 -0.63162822 22.112
23.783295 -1.4239658 -0.51163465 23.535667
23.831697 -29.774338 -0.26971173 22.192232
23.987703 -29.400984 -0.31527656 22.059999
23.611547 -19.555677 -0.003110582 23.333334
23.801325 -18.661516 -0.28951138 22.267876
23.743328 -1.3990995 -0.27201334 24.877607
23.972013 -29.534986 0.041625299 23.0695
23.674734 -18.898146 0.21067981 24.333334
23.770979 -18.75502 0.21380024 24.375
24.214081 -22.807978 -1.2028832 20
24.152454 -22.5418 -1.2092353 19.75
24.305767 -22.150255 -1.2188669 19.333334
24.194508 -21.626822 -1.2355725 19
24.012844 -21.311129 -1.2367402 18
24.096256 -21.014292 -1.2684014 20
24.225317 -20.24015 -1.2580155 18.666666
24.168669 -19.765474 -1.2449387 19
24.209888 -18.573523 -1.2656018 19.046749
24.193092 -18.191858 -1.2700101 17.759811
24.17478 -17.68516 -1.2714726 19
24.265213 -17.32189 -1.2853724 17.25
24.158106 -16.947788 -1.2939301 16
24.233934 -16.592207 -1.3001878 18
24.233643 -16.247477 -1.3027487 15
24.188675 -15.742278 -1.3084614 15.2
24.115894 -15.372267 -1.3073002 12.722222
24.227224 -15.124602 -1.3121486 13.8
24.152052 -14.542862 -1.3198187 12.6875
24.154419 -14.206204 -1.3382378 15.989583
24.196089 -13.793787 -1.3341861 13.458333
24.317574 -13.401626 -1.3377872 14.666667
24.266253 -12.948066 -1.3513739 11.172222
24.171005 -12.533103 -1.3572878 10.898148
24.243237 -12.172535 -1.3600341 11.655556
24.185783 -11.856135 -1.3561717 17.551455
24.301113 -11.470749 -1.3714501 12.75
24.242281 -11.096554 -1.3748949 10.830357
24.193666 -10.651237 -1.3742325 15.14864
24.15344 -10.222156 -1.3754226 14.214286
24.193403 -9.778904 -1.3776627 12.722222
24.182817 -9.3335152 -1.382947 11.964286
24.159901 -8.9223824 -1.3754261 9.9200001
24.231071 -8.6017084 -1.3797057 11.822917
24.170736 -8.1505413 -1.3828628 12.666667
24.185036 -7.852499 -1.3885269 13.722222
24.212358 -7.3724551 -1.392514 15.416667
24.210829 -7.0266576 -1.3990093 15.285714
24.242002 -6.5933003 -1.4064386 16.777779
24.240644 -6.1962423 -1.4085059 16.428572
24.124992 -5.7508998 -1.3389262 17.361111
24.269825 -5.4532728 -1.3999715 17
24.186073 -26.669207 -0.80580044 21.071501
24.13649 -26.301744 -0.81116754 21.059999
24.308046 -25.729445 -0.82053953 21.0735
24.211086 -25.429081 -0.89512759 20.89225
24.196407 -24.563345 -1.0027057 20
24.197893 -23.789946 -1.0906243 20.898428
24.257915 -23.42589 -1.1483433 19.697166
24.145586 -23.074501 -1.1490406 20
24.196522 -22.742357 -1.1810904 19.333334
24.071064 -5.6359873 -1.1104546 18.80303
24.075167 -5.5234318 -1.021197 19.800041
24.286779 -4.9978104 -0.98092657 20
24.182077 -4.638586 -0.97441989 20
24.191338 -4.1409221 -0.9890908 20
24.233021 -3.8695333 -1.0002612 20
24.213554 -1.7311343 -0.99211234 21.428572
24.120344 -34.851524 -0.57554847 22.075001
24.089973 -33.388111 -0.56878144 22.0755
24.254341 -32.416454 -0.5680837 22.076
24.079384 -29.68346 -0.46326187 22.315125
24.198578 -29.430368 -0.51573747 22.048
24.236965 -28.721277 -0.69074368 21.056999
24.203985 -27.711185 -0.72863919 21.063999
24.150908 -27.533007 -0.71268612 21.060499
24.19611 -26.996059 -0.77683717 21.070833
24.248062 -1.7125733 -0.6369307 22.944445
24.062834 -1.5811667 -0.54257321 23.353582
24.212591 -29.654306 -0.25929871 22.148954
24.204859 -29.439569 -0.23425524 22.309046
24.228947 -1.6688094 -0.29508096 24.4
24.062233 -1.5661299 -0.30192393 24.5
24.18519 -29.700924 0.20990814 23.259722
24.329708 -29.585421 0.12593339 23.034082
24.164623 -29.682419 0.51868349 23.857168
24.712172 -22.971846 -1.2137948 19.5
24.505844 -22.567936 -1.2208014 19.666666
24.710974 -22.165604 -1.2313532 19.5
24.593006 -21.336891 -1.2466447 18.666666
24.617952 -20.861994 -1.2867221 20
24.613153 -20.206705 -1.2711899 18.5
24.418343 -19.731009 -1.2619874 18
24.466928 -19.571199 -1.2561235 18.5
24.677652 -18.503189 -1.2782763 17
24.579292 -18.208553 -1.2718673 18.466749
24.550392 -17.905729 -1.2875913 18
24.621912 -17.347151 -1.2901605 17.166666
24.577703 -16.960615 -1.2996879 17.5
24.628355 -16.706232 -1.3102109 15
24.613316 -16.263727 -1.3105015 17
24.524267 -15.796217 -1.3226994 15.833333
24.612858 -15.467417 -1.3210024 14.666667
24.602861 -15.003244 -1.3290797 13.833333
24.646933 -14.56245 -1.333227 10
24.527025 -14.187568 -1.3455828 14.475
24.61725 -13.846634 -1.3502665 16.225
24.566338 -13.418067 -1.3506236 13.708333
24.626736 -13.068155 -1.3612239 10.942858
24.586323 -12.627396 -1.3655597 8.3738089
24.667074 -12.223719 -1.3679621 11.166667
24.587145 -11.713773 -1.3812156 9.7416668
24.640987 -11.332289 -1.3763431 14.524786
24.584137 -10.971573 -1.3784739 12.133333
24.597542 -10.593919 -1.3799696 13.640475
24.6283 -10.200076 -1.3836404 16.333334
24.619467 -9.8112497 -1.3851812 14.4375
24.579853 -9.4473228 -1.3907748 13.6875
24.545496 -9.0729399 -1.3886642 12.25
24.637201 -8.6270523 -1.3966104 13.81
24.592405 -8.1861706 -1.3982681 14
24.65995 -7.8328876 -1.404054 14.875
24.5609 -7.3821588 -1.4061534 15.142858
24.639191 -6.9435029 -1.4127047 17
24.577456 -6.6253276 -1.4155189 16.428572
24.575716 -6.2188859 -1.4166397 16.166666
24.616043 -5.8181648 -1.4201744 17.833334
24.6502 -5.3894935 -1.4298517 17
24.532328 -5.1109185 -1.3860563 18
24.596262 -4.7214561 -1.3802269 18.333334
24.734919 -27.179947 -0.8050921 21.07
24.562214 -26.612356 -0.82270032 21.060749
24.581671 -25.673025 -0.89463383 21.0735
24.643419 -25.418606 -0.92429549 20.6432
24.541338 -25.020342 -0.9511717 20.536751
24.544531 -24.612726 -1.0108118 20.785
24.538008 -24.145807 -1.0319008 20.543251
24.757603 -23.674334 -1.1333939 21.080999
24.570543 -23.383753 -1.1568646 19.5
24.675636 -23.173037 -1.1778799 20
24.519806 -22.794134 -1.1954085 20
24.420135 -5.043972 -1.0252966 21.14875
24.556616 -4.5574541 -1.0245547 20.459049
24.56492 -4.2115607 -1.0057313 20
24.737806 -2.0229695 -1.0150194 21.5
24.588238 -1.9124352 -0.96048403 21.672426
24.622791 -37.214722 -0.51154506 22.068001
24.486156 -36.261292 -0.50572985 22.0865
24.756313 -35.653076 -0.50840932 22.068501
24.432989 -31.558449 -0.5683434 22.0765
24.633204 -29.434156 -0.54864717 21.754135
24.612179 -29.104261 -0.43398494 22.076061
24.504202 -27.858894 -0.7061646 21.315876
24.643997 -27.273882 -0.76526898 21.3305
24.604517 -1.9023674 -0.56735933 23.440578
24.538046 -29.652063 -0.03018917 23.052
24.5972 -29.351965 -0.21839955 22.388821
24.567427 -29.126909 -0.25305188 22.071447
24.557415 -1.8771312 -0.26987046 24.742323
24.488405 -29.630079 0.21510008 23.08625
24.653172 -29.433344 0.2069907 23.249262
24.769947 -29.188009 0.03348323 23
24.63553 -29.398331 0.52922922 23.869143
24.520153 -80.339195 1.5974708 24.0425
25.19573 -23.236616 -1.2011126 20
24.931673 -22.990528 -1.2235527 19.333334
24.888979 -22.439938 -1.2415849 20
25.088449 -22.248964 -1.2414397 19.75
24.938198 -21.494951 -1.2628833 18.5
24.99996 -20.985571 -1.275353 20
25.053869 -20.45706 -1.2716881 18
24.939638 -20.2106 -1.2866671 18.5
24.913033 -19.769161 -1.2846527 18
24.973198 -19.406231 -1.2555703 20
25.111095 -18.549545 -1.2984574 17
24.964308 -18.10111 -1.2984753 17
24.970102 -17.80018 -1.2752191 19.547125
24.957842 -17.335175 -1.2896973 18.369833
25.009724 -17.056414 -1.29741 17.200001
24.996475 -16.639011 -1.3130645 15.666667
24.97065 -16.156145 -1.3202245 16.6
25.000797 -15.796012 -1.3255191 17.291668
24.982922 -15.43536 -1.3312275 14.761905
24.975121 -15.005832 -1.3379622 13.55
25.135572 -14.715338 -1.3484819 12.8
25.040852 -14.201233 -1.3542731 10.583333
24.967436 -13.717273 -1.361389 11.416667
24.989906 -13.348129 -1.3668001 16.115152
25.091415 -12.991871 -1.3643832 15.361112
25.008224 -12.591201 -1.3812737 10.625
24.946163 -12.153813 -1.3809589 11.51775
24.978924 -11.824661 -1.3853657 15.250944
25.006655 -11.442223 -1.387639 11.916327
24.976221 -11.049486 -1.3904918 10.493055
24.927578 -10.606333 -1.3842493 14.923222
25.021204 -10.207331 -1.3913101 13.43052
25.060051 -9.7680206 -1.3940344 13.527778
25.025162 -9.3683262 -1.4019736 13.62963
24.940653 -8.9595251 -1.4069525 14.4
25.032587 -8.5772533 -1.4152144 15.666667
24.982407 -8.1987038 -1.4158649 15.757577
24.983244 -7.809485 -1.4187484 15.777778
25.010145 -7.3887115 -1.4222025 16
25.006414 -6.9002266 -1.4340669 15.888889
25.031532 -6.624362 -1.4302325 17.200001
24.976366 -6.2410731 -1.4311285 17.299999
24.958055 -5.8090725 -1.4359425 17.25
24.946375 -5.3679504 -1.4401275 17
24.944448 -4.7301002 -1.4666426 17
24.968082 -4.2353621 -1.4569373 18.25
24.989771 -3.9552133 -1.3074398 19
25.158886 -2.2171755 -1.2652866 21
25.162579 -27.329285 -0.81258082 21.071999
24.910942 -26.963102 -0.829247 21.06675
25.023935 -26.189882 -0.86677104 21.07325
24.979994 -25.744379 -0.91040152 21.0695
25.080219 -25.513805 -0.94646245 20.715666
25.001448 -25.075756 -1.0281671 20
24.96452 -24.731525 -1.0703359 20
24.883469 -24.363264 -1.0812851 20
24.914444 -23.857126 -1.1120799 21.054167
24.940901 -23.412704 -1.1761694 20.022999
25.007217 -4.0293798 -1.1186591 21.1465
25.042362 -2.1482644 -0.95844293 21.571428
24.808603 -1.9821529 -0.94990474 21.5
24.903923 -35.545795 -0.51475888 22.087
25.014729 -29.367287 -0.54787922 21.782001
25.004049 -28.05965 -0.74634975 21.065125
24.927467 -27.947851 -0.72112864 21.06175
25.038485 -27.401121 -0.76144212 21.57325
25.059004 -2.1162405 -0.55491233 23.362825
24.909832 -1.9639606 -0.44969893 23.833334
24.952621 -29.475571 -0.19652221 22.466639
25.035583 -2.09532 -0.36244121 24.156376
24.867216 -29.425377 0.22366592 23.061375
25.483416 -23.346943 -1.2202051 19.5
25.263941 -23.041937 -1.2472692 19.666666
25.387407 -22.264591 -1.2456751 19.5
25.505421 -21.922462 -1.2591478 20
25.27597 -21.482601 -1.2748132 18.5
25.4575 -21.158253 -1.2668473 20
25.470938 -20.484413 -1.2986037 19
25.40678 -20.151913 -1.3097434 18.333334
25.430346 -19.693115 -1.3039005 17.75
25.592407 -18.583206 -1.322395 17
25.430746 -18.12681 -1.3190861 16.666666
25.207064 -17.757746 -1.3075684 18
25.404732 -17.409079 -1.295951 18.031668
25.368452 -16.97216 -1.3064327 17.6119
25.464094 -16.640648 -1.328022 16.799999
25.36965 -16.12314 -1.3344254 15.857142
25.427519 -15.796742 -1.3363477 16.25
25.449238 -15.4012 -1.3473868 16
25.475475 -15.17171 -1.3510745 17
25.438768 -14.602784 -1.3585399 13.107142
25.480097 -14.216548 -1.3636611 11.5
25.41712 -13.863626 -1.3682214 10.1875
25.370287 -13.428793 -1.3764466 13.333333
25.402094 -12.988504 -1.3821124 14.738096
25.375782 -12.629945 -1.380197 15.35
25.411066 -12.143535 -1.4013463 11.416667
25.412043 -11.729085 -1.3976511 11.814301
25.449385 -11.292066 -1.3988488 11.25
25.340479 -10.919894 -1.3950374 13.527779
25.392252 -10.535694 -1.4008507 12
25.25094 -10.16299 -1.3980309 12.625
25.353651 -9.8206081 -1.4033693 11.904762
25.357857 -9.4523296 -1.4079272 14.625
25.370649 -9.0388222 -1.4139706 15.625
25.385269 -8.6510658 -1.4186693 15.222222
25.373644 -8.2293587 -1.420212 15.555555
25.408554 -7.7580218 -1.432583 16.333334
25.345852 -7.3619466 -1.4415642 17.571428
25.340281 -7.0176473 -1.4432666 16.714285
25.455471 -6.5359883 -1.4494598 18
25.379902 -6.2054257 -1.4548655 17
25.419012 -5.6444192 -1.4604132 17.5
25.427408 -5.3834214 -1.4576283 17
25.26581 -4.8843398 -1.4771916 17
25.395679 -4.2079382 -1.4646614 18.166666
25.576183 -2.8578639 -1.4486182 19
25.382282 -2.7420952 -1.4593452 19.5
25.366705 -2.3147476 -1.2624989 21
25.467358 -27.316723 -0.83245122 21.071751
25.29376 -27.000698 -0.84001714 21.062
25.316231 -26.146374 -0.89748883 21.073
25.404743 -25.793665 -0.9250769 21.072166
25.397434 -25.373514 -0.99876481 20.268625
25.328527 -25.09663 -0.9786967 21.079
25.318443 -24.4538 -1.06112 20.543499
25.330433 -24.141228 -1.1359847 21.02375
25.439857 -23.781328 -1.1581842 20.3955
25.204744 -23.398197 -1.1822184 20
25.527857 -2.4228754 -1.0092497 21.5
25.417459 -2.3392992 -0.95279539 21.507692
25.33971 -45.833023 -0.54984045 22.066999
25.232031 -42.305042 -0.53651321 22.067499
25.408264 -29.287373 -0.50121331 22.04855
25.472456 -29.066999 -0.72058046 21
25.442558 -28.256424 -0.7234242 21.316999
25.270956 -27.455868 -0.76902074 21.5895
25.426144 -2.3092389 -0.57884085 23.115784
25.298052 -29.357203 -0.31311753 22.0578
25.354954 -2.2681451 -0.33669147 24.097555
25.826996 -23.79439 -1.2163106 20.030832
25.744921 -23.469416 -1.2246071 19.666666
25.74329 -23.019556 -1.2645032 19.666666
25.731346 -22.185116 -1.2578658 20
25.946461 -21.850578 -1.2777568 20
25.698809 -21.453129 -1.2904198 18.5
25.765848 -20.970163 -1.2742174 20
25.938662 -20.462486 -1.2980367 18
25.865927 -20.180151 -1.3245107 19
25.812599 -19.701662 -1.314099 17.5
25.769587 -19.374733 -1.301134 19.5
25.861509 -18.506607 -1.3275852 17
25.81426 -18.180639 -1.3241903 17.52025
25.886261 -17.946487 -1.3381972 17
25.804031 -17.363379 -1.3288949 17
25.81082 -16.945461 -1.3211629 18.55525
25.827494 -16.619921 -1.3277766 17.185167
25.743723 -16.136013 -1.3506624 14.666667
25.858608 -15.81624 -1.355082 17.200001
25.826344 -15.398635 -1.365595 15
25.787617 -15.04194 -1.357307 15.541667
25.799755 -14.571013 -1.3644481 15.033333
25.886896 -14.183533 -1.3804028 14
25.86047 -13.706672 -1.3807321 9.5333338
25.834057 -13.292768 -1.3860964 7.0214286
25.827774 -13.015049 -1.396768 9.833333
25.743526 -12.595659 -1.4009513 15.6
25.846821 -12.224859 -1.3995016 15.0625
25.824759 -11.802541 -1.4066542 14.541667
25.815329 -11.459926 -1.412874 14.604881
25.799492 -11.017297 -1.4121855 11.822916
25.820053 -10.623911 -1.4158297 12.960001
25.751648 -10.155895 -1.4139423 12.849105
25.836454 -9.7637835 -1.4231061 12.833334
25.793385 -9.3644848 -1.4246583 13.733333
25.796642 -8.9799061 -1.426973 12.5
25.841745 -8.5780716 -1.4277819 16.083332
25.806412 -8.2567644 -1.4371608 15.428572
25.791754 -7.8490963 -1.4410158 16.444445
25.804911 -7.3347635 -1.4505405 16.625
25.764297 -7.0332389 -1.467321 18
25.782377 -6.5518312 -1.4661506 17.5
25.77997 -6.1848712 -1.4757835 17
25.8409 -5.7442875 -1.4671901 17
25.842695 -5.3719754 -1.4868847 17.4
25.774145 -5.1104164 -1.4860867 17.5
25.871172 -4.2220912 -1.487734 18.142857
25.891256 -3.6144867 -1.5083793 18
25.649166 -3.5297935 -1.4987023 18
25.801798 -2.9324405 -1.4318916 19.200001
25.795141 -2.5162404 -1.2626101 20.4
25.723249 -27.345112 -0.8372764 21.068375
25.922962 -26.730968 -0.87219971 21.074499
25.919781 -26.220095 -0.93638891 21.071667
25.97241 -25.729994 -1.0077431 20
25.743343 -25.407263 -1.0275433 20
25.812111 -24.635036 -1.1081774 20
25.882866 -24.313148 -1.1142256 20.543751
25.744293 -20.087086 -1.0414093 20
